0.88,0.881,0.881,0.88,0.88,0.879,0.877,0.876,0.876,0.874,0.873,0.873,0.871,0.87,0.87,0.869,0.867,0.867,0.862,0.854,0.854,0.848,0.848,0.836,0.823,0.823,0.811,0.811,0.799,0.792,0.792,0.79,0.789,0.789,0.788,0.788,0.788,0.787,0.786,0.785,0.785,0.785,0.784,0.784,0.783,0.783,0.783,0.783,0.783,0.783,0.783,0.783,0.783,0.783,0.783,0.784,0.784,0.784,0.784,0.784,0.783,0.782,0.782,0.781,0.78,0.779,0.779,0.779,0.778,0.778,0.777,0.777,0.777,0.777,0.777,0.777,0.777,0.777,0.777,0.777,0.777,0.777,0.777,0.777,0.777,0.777,0.777,0.776,0.776,0.776,0.776,0.776,0.776,0.776,0.776,0.776,0.775,0.775,0.775,0.775,0.774,0.774,0.774,0.773,0.772,0.772,0.772,0.771,0.771,0.771,0.77,0.77,0.77,0.769,0.769,0.768,0.768,0.767,0.767,0.767,0.766,0.766,0.766,0.766,0.766,0.766,0.767,0.767,0.766,0.766,0.766,0.766,0.765,0.765,0.765,0.764,0.764,0.764,0.763,0.762,0.762,0.762,0.762,0.762,0.762,0.761,0.761,0.761,0.76,0.76,0.76,0.759,0.758,0.758,0.758,0.757,0.757,0.756,0.756,0.756,0,0,3.95,3.95,3.861,3.776,3.776,3.748,3.735,3.735,3.708,3.694,3.681,3.681,3.681,3.668,3.668,3.655,3.642,3.642,3.616,3.616,3.616,3.591,3.579,3.579,3.579,3.554,3.542,3.542,3.529,3.529,3.529,3.529,3.529,3.529,3.529,3.529,3.529,3.529,3.529,3.554,3.554,3.554,3.566,3.579,3.579,3.579,3.591,3.604,3.604,3.604,3.604,3.566,3.554,3.554,3.542,3.542,3.542,3.517,3.493,3.493,3.47,3.47,3.47,3.47,3.47,3.458,3.458,3.458,3.458,3.458,3.447,3.435,3.435,3.435,3.424,3.424,3.424,3.401,3.39,3.39,3.379,3.367,3.367,3.367,3.367,3.367,3.367,0,0,0,0,0,0,0,0,0,0,0,0,0,0,0,0,0,0,0,0,0,0,0,0,0,0,0,0,0,0,0,0,0,0,0,0,0,0,0,0,0,0,1.031,1.031,1.028,1.024,1.024,1.02,1.017,1.017,1.014,1.011,1.011,1.006,1.001,1.001,0.997,0.995,0.995,0.994,0.992,0.992,0.989,0.988,0.985,0.985,0.984,0.984,0.984,0.983,0.983,0.983,0.983,0.984,0.985,0.985,0.986,0.987,0.989,0.989,0.989,0.99,0.989,0.989,0.99,0.99,0.989,0.989,0.989,0.986,0.982,0.982,0.979,0.979,0,0.971,0.965,0.965,0.963,0.959,0.959,0.955,0.954,0.954,0.952,0.95,0.95,0.95,0.95,0.95,0.95,0.95,0.95,0.95,0.95,0.95,0.952,0.952,0.954,0.955,0.954,0.954,0.955,0.955,0.955,0.955,0.955,0.955,0.952,0.952,0.949,0.947,0.947,0.944,0.942,0.942,0.94,0.938,0.938,0.937,0.935,0.934,0.934,0.933,0.932,0.932,0.931,0.929,0.929,0.929,0.928,0.928,0.928,0.926,0.926,0.926,0.925,0.925,0.925,0.925,0.925,0.927,0.927,0.927,0.928,0.928,0.929,0.929,0.93,0.93,0.932,0.932,0.932,0.933,0.934,0.934,0.934,0.934,0.935,0.935,0.935,0.935,0.935,0.935,0.935,0.934,0.933,0.933,0.932,0.932,0.932,0.932,0.931,0.93,0.93,0.93,0.931,0.931,0.931,0.933,0.932,0.932,0.931,0.93,0.93,0.929,0.928,0.928,0.924,0.923,0.923,0.922,0.921,0.921,0.92,0.92,0.92,0.919,0.919,0.919,0.919,0.919,0.921,0.921,0.92,0.919,0.919,0.917,0.917,0,0.914,0.912,0.911,0.911,0.909,0.909,0.909,0.909,0.911,0.911,0.911,0.914,0.916,0.918,0.918,0.92,0.923,0.923,0.924,0.927,0.929,0.929,0.929,0.931,0.931,0.933,0.934,0.933,0.933,0.932,0.932,0.931,0.93,0.93,0.929,0.928,0.928,0.924,0.924,0.924,0.924,0,0,0,0,0,0,0,0.949,0.949,0.952,0.952,0.954,0.957,0.957,0.961,0.966,0.977,0.977,0.989,0,0,1.044,1.044,1.044,1.057,1.063,1.063,1.063,1.062,1.062,1.062,1.062,1.062,1.062,1.062,1.062,1.062,1.063,1.063,1.063,1.064,1.064,1.065,1.065,1.068,1.07,1.07,1.073,1.075,1.08,1.08,1.088,1.097,0,0,0,1.172,1.172,1.185,1.185,1.191,1.201,1.213,1.213,1.227,0,0,1.265,1.265,1.274,1.284,1.284,1.289,1.292,1.292,1.297,1.302,1.307,1.307,1.31,1.312,1.312,1.313,1.313,1.313,1.313,1.312,1.312,1.31,1.31,1.31,1.308,1.307,1.307,1.303,1.303,0,0,0,0,0,0,0,0,0,0,0,1.109,1.109,1.102,1.098,1.098,1.095,1.094,1.094,1.094,1.093,1.093,1.093,1.093,1.093,1.094,1.094,1.096,1.096,1.096,1.096,1.096,1.096,1.096,1.095,1.095,1.088,1.088,0,1.045,1.045,1.045
0.879,0.879,0.879,0.879,0.879,0.878,0.876,0.876,0.876,0.874,0.873,0.873,0.871,0.87,0.87,0.867,0.867,0.867,0.865,0.858,0.858,0.848,0.848,0.836,0.823,0.823,0.811,0.806,0.802,0.794,0.794,0.791,0.789,0.789,0.789,0.788,0.788,0.787,0.786,0.786,0.786,0.785,0.785,0.785,0.785,0.784,0.784,0.784,0.783,0.783,0.783,0.783,0.783,0.783,0.783,0.784,0.784,0.784,0.784,0.784,0.783,0.782,0.782,0.781,0.78,0.78,0.78,0.779,0.778,0.778,0.778,0.778,0.778,0.778,0.778,0.778,0.778,0.778,0.778,0.779,0.779,0.779,0.779,0.778,0.778,0.778,0.777,0.777,0.777,0.777,0.777,0.776,0.776,0.776,0.776,0.776,0.775,0.775,0.775,0.775,0.774,0.774,0.774,0.773,0.773,0.773,0.772,0.771,0.771,0.771,0.77,0.77,0.77,0.769,0.769,0.769,0.768,0.768,0.768,0.767,0.767,0.767,0.766,0.766,0.766,0.766,0.767,0.767,0.766,0.765,0.765,0.765,0.764,0.764,0.764,0.763,0.762,0.762,0.762,0.761,0.761,0.761,0.761,0.761,0.761,0.761,0.761,0.761,0.76,0.76,0.76,0.759,0.758,0.758,0.758,0.757,0.757,0.756,0.756,0.756,0,0,3.95,3.95,3.861,3.776,3.776,3.748,3.735,3.735,3.708,3.694,3.681,3.681,3.668,3.655,3.655,3.642,3.629,3.629,3.616,3.616,3.616,3.591,3.579,3.579,3.579,3.554,3.542,3.542,3.529,3.529,3.529,3.529,3.529,3.529,3.529,3.529,3.529,3.529,3.529,3.554,3.554,3.554,3.566,3.579,3.579,3.579,3.591,3.604,3.604,3.604,3.604,3.566,3.554,3.554,3.542,3.542,3.542,3.517,3.493,3.493,3.47,3.47,3.47,3.47,3.47,3.458,3.458,3.447,3.435,3.435,3.435,3.424,3.424,3.424,3.401,3.401,3.401,3.39,3.379,3.379,3.379,3.367,3.367,3.367,3.356,3.356,3.356,0,0,0,0,0,0,0,0,0,0,0,0,0,0,0,0,0,0,0,0,0,0,0,0,0,0,0,0,0,0,0,0,0,0,0,0,0,0,0,0,0,1.031,1.03,1.03,1.027,1.023,1.023,1.019,1.016,1.016,1.013,1.01,1.01,1.005,1,1,0.996,0.992,0.992,0.99,0.989,0.989,0.988,0.986,0.983,0.983,0.981,0.981,0.981,0.981,0.98,0.98,0.98,0.981,0.981,0.981,0.983,0.985,0.988,0.988,0.989,0.989,0.989,0.989,0.99,0.99,0.989,0.988,0.988,0.985,0.982,0.982,0.977,0.974,0.974,0.969,0.964,0.964,0.961,0.957,0.957,0.955,0.953,0.953,0.952,0.95,0.95,0.95,0.95,0.95,0.95,0.95,0.95,0.95,0.95,0.95,0.952,0.952,0.954,0.955,0.954,0.954,0.955,0.955,0.955,0.955,0.955,0.955,0.952,0.952,0.949,0.947,0.947,0.944,0.942,0.942,0.94,0.938,0.938,0.937,0.935,0.934,0.934,0.933,0.932,0.932,0.931,0.929,0.929,0.929,0.928,0.928,0.927,0.926,0.926,0.925,0.924,0.924,0.924,0.924,0.925,0.926,0.926,0.927,0.927,0.927,0.928,0.929,0.93,0.93,0.932,0.932,0.932,0.933,0.934,0.934,0.934,0.934,0.935,0.935,0.935,0.935,0.935,0.935,0.935,0.934,0.933,0.933,0.932,0.932,0.932,0.932,0.931,0.93,0.93,0.93,0.931,0.931,0.931,0.933,0.932,0.932,0.931,0.93,0.93,0.929,0.928,0.928,0.924,0.923,0.923,0.922,0.921,0.921,0.92,0.92,0.92,0.919,0.919,0.919,0.919,0.919,0.921,0.921,0.92,0.919,0.919,0.917,0.917,0.918,0.914,0.912,0.911,0.911,0.909,0.909,0.909,0.909,0.911,0.911,0.911,0.914,0.916,0.918,0.918,0.92,0.923,0.923,0.924,0.927,0.929,0.929,0.929,0.931,0.931,0.933,0.934,0.933,0.933,0.932,0.932,0.931,0.93,0.93,0.929,0.927,0.927,0.924,0.923,0.923,0.923,0,0,0,0,0,0,0,0.947,0.947,0.951,0.951,0.954,0.957,0.957,0.961,0.966,0.977,0.977,0.989,0,0,1.044,1.044,1.044,1.057,1.062,1.062,1.062,1.062,1.062,1.061,1.061,1.061,1.061,1.061,1.061,1.061,1.061,1.061,1.061,1.062,1.064,1.064,1.064,1.067,1.069,1.069,1.072,1.075,1.08,1.08,1.088,1.097,0,0,1.153,1.153,1.17,1.183,1.183,1.19,1.198,1.198,1.213,1.227,0,0,1.265,1.265,1.274,1.284,1.284,1.289,1.292,1.292,1.297,1.302,1.307,1.307,1.31,1.312,1.312,1.313,1.313,1.313,1.313,1.312,1.312,1.31,1.31,1.31,1.308,1.307,1.307,1.303,1.303,0,0,0,0,0,0,0,0,0,0,0,1.101,1.101,1.096,1.095,1.095,1.095,1.094,1.091,1.091,1.09,1.09,1.09,1.09,1.09,1.093,1.093,1.094,1.095,1.094,1.094,1.094,1.094,1.094,1.094,1.094,1.088,1.088,0,1.045,1.045,1.045
0.879,0.879,0.879,0.879,0.879,0.878,0.876,0.876,0.876,0.874,0.873,0.873,0.871,0.87,0.87,0.867,0.867,0.867,0.865,0.86,0.86,0.851,0.851,0,0,0,0,0.806,0.806,0.796,0.796,0.791,0.79,0.79,0.789,0.788,0.788,0.788,0.787,0.786,0.786,0.786,0.785,0.785,0.785,0.785,0.785,0.784,0.784,0.784,0.784,0.784,0.784,0.784,0.784,0.785,0.785,0.785,0.784,0.784,0.783,0.782,0.782,0.782,0.78,0.78,0.78,0.78,0.779,0.779,0.779,0.779,0.779,0.779,0.779,0.779,0.779,0.779,0.78,0.78,0.78,0.78,0.78,0.779,0.779,0.779,0.779,0.778,0.777,0.777,0.777,0.777,0.777,0.776,0.776,0.776,0.776,0.776,0.776,0.775,0.774,0.774,0.774,0.774,0.773,0.773,0.772,0.771,0.771,0.771,0.771,0.771,0.77,0.77,0.77,0.769,0.769,0.769,0.769,0.768,0.768,0.768,0.767,0.767,0.767,0.767,0.766,0.766,0.766,0.765,0.764,0.764,0.764,0.762,0.762,0.762,0.761,0.761,0.761,0.761,0.761,0.761,0.761,0.761,0.76,0.76,0.76,0.76,0.76,0.76,0.76,0.759,0.759,0.759,0.758,0.757,0.757,0.756,0.756,4.334,0,4.141,3.996,3.996,3.92,3.832,3.832,3.79,3.762,3.748,3.721,3.708,3.681,3.681,3.655,3.642,3.642,3.629,3.629,3.629,3.616,3.616,3.616,3.616,3.616,3.604,3.604,3.591,3.579,3.579,3.579,3.579,3.579,3.579,3.579,3.579,3.579,3.566,3.566,3.566,3.566,3.579,3.591,3.591,3.591,3.591,3.591,3.604,3.616,3.616,3.616,3.616,3.616,3.591,3.579,3.579,3.566,3.554,3.554,3.529,3.505,3.505,3.482,3.47,3.47,3.47,3.47,3.458,3.458,3.447,3.435,3.435,3.435,3.424,3.424,3.412,3.401,3.39,3.39,3.39,3.379,3.379,3.379,3.367,3.367,3.367,3.356,3.356,3.356,0,0,0,0,0,0,0,0,0,0,0,0,0,0,0,0,0,0,0,0,0,0,0,0,0,0,0,0,0,0,0,0,0,0,0,0,0,0,0,0,0,1.028,1.026,1.026,1.023,1.02,1.02,1.016,1.014,1.014,1.011,1.007,1.007,1.002,0.998,0.998,0.994,0.99,0.99,0.989,0.987,0.987,0.985,0.982,0.982,0.98,0.978,0.978,0.978,0.978,0.977,0.977,0.977,0.978,0.979,0.979,0.98,0.982,0.985,0.985,0.987,0.988,0.988,0.989,0.989,0.989,0.989,0.988,0.988,0.985,0.981,0.981,0.977,0.973,0.973,0.969,0.964,0.964,0.961,0.957,0.957,0.955,0.953,0.953,0.952,0.951,0.951,0.951,0.951,0.951,0.951,0.951,0.951,0.951,0.951,0.952,0.954,0.954,0.955,0.957,0.957,0.957,0.957,0.957,0.957,0.957,0.957,0.955,0.954,0.954,0.951,0.948,0.948,0.947,0.944,0.944,0.942,0.941,0.94,0.94,0.937,0.935,0.935,0.935,0.934,0.934,0.932,0.93,0.93,0.929,0.928,0.928,0.927,0.926,0.926,0.925,0.924,0.924,0.924,0.924,0.924,0.924,0.924,0.926,0.927,0.927,0.928,0.929,0.93,0.93,0.932,0.932,0.932,0.934,0.934,0.934,0.934,0.935,0.935,0.935,0.935,0.935,0.935,0.935,0.936,0.935,0.935,0.934,0.934,0.934,0.934,0.934,0.934,0.933,0.933,0.933,0.933,0.933,0.933,0.935,0.934,0.934,0.933,0.932,0.932,0.93,0.929,0.929,0.927,0.924,0.924,0.924,0.922,0.922,0.921,0.921,0.921,0.92,0.92,0.92,0.922,0.922,0.922,0.923,0.921,0.92,0.92,0.919,0.918,0.918,0.917,0.916,0.915,0.915,0.914,0.914,0.915,0.915,0.915,0.917,0.917,0.919,0.921,0.923,0.923,0.924,0.926,0.926,0.928,0.929,0.931,0.931,0.931,0.932,0.932,0.933,0.935,0.933,0.933,0.932,0.932,0.931,0.93,0.93,0.929,0.927,0.927,0.924,0.92,0.92,0.919,0.919,0.92,0.92,0.926,0,0,0,0.947,0.947,0.951,0.951,0.955,0.961,0.961,0.966,0.975,0.986,0.999,0.999,0,1.042,1.042,1.047,1.047,1.058,1.061,1.061,1.061,1.061,1.061,1.061,1.061,1.061,1.061,1.061,1.061,1.06,1.06,1.06,1.06,1.062,1.063,1.064,1.064,1.065,1.068,1.068,1.072,1.077,1.082,1.082,1.089,1.102,0,0,1.153,1.153,1.168,1.168,1.183,1.19,1.198,1.198,1.213,1.227,0,0,0,1.276,1.276,1.284,1.284,1.29,1.294,1.294,1.298,1.303,1.308,1.308,1.312,1.313,1.313,1.315,1.317,1.315,1.315,1.313,1.313,1.312,1.31,1.31,1.308,1.307,1.307,1.307,0,0,0,0,0,0,0,0,0,0,0,0,1.1,1.1,1.096,1.095,1.095,1.094,1.094,1.091,1.091,1.09,1.09,1.09,1.09,1.09,1.09,1.09,1.091,1.093,1.091,1.091,1.091,1.091,1.088,1.088,1.088,1.08,1.08,0,0,0,0
0.876,0.878,0.878,0.878,0.879,0.877,0.876,0.875,0.875,0.873,0.872,0.872,0.87,0.87,0.87,0.867,0.866,0.866,0.865,0.86,0.86,0.851,0.851,0,0,0,0,0.806,0.806,0.796,0.796,0.791,0.79,0.79,0.789,0.788,0.788,0.788,0.787,0.786,0.786,0.786,0.785,0.785,0.785,0.785,0.785,0.784,0.784,0.784,0.784,0.784,0.784,0.784,0.784,0.785,0.785,0.785,0.784,0.784,0.783,0.782,0.782,0.782,0.78,0.78,0.78,0.78,0.779,0.779,0.779,0.779,0.779,0.779,0.779,0.779,0.779,0.779,0.78,0.78,0.78,0.78,0.782,0.781,0.78,0.78,0.78,0.779,0.779,0.779,0.779,0.777,0.777,0.777,0.777,0.777,0.776,0.776,0.776,0.776,0.775,0.774,0.774,0.774,0.773,0.773,0.772,0.771,0.771,0.771,0.771,0.771,0.77,0.77,0.77,0.77,0.769,0.769,0.769,0.769,0.768,0.768,0.768,0.768,0.768,0.767,0.766,0.766,0.766,0.765,0.764,0.764,0.764,0.762,0.762,0.762,0.761,0.761,0.761,0.761,0.761,0.761,0.761,0.761,0.76,0.76,0.76,0.76,0.76,0.76,0.76,0.759,0.759,0.759,0.759,0.758,0.758,0.758,4.334,4.334,0,4.141,4.044,4.044,3.95,3.861,3.861,3.832,3.776,3.748,3.748,3.708,3.681,3.681,3.655,3.642,3.642,3.629,3.629,3.629,3.616,3.616,3.616,3.616,3.616,3.629,3.629,3.616,3.616,3.616,3.616,3.616,3.616,3.616,3.604,3.604,3.604,3.591,3.591,3.591,3.591,3.604,3.604,3.604,3.616,3.616,3.616,3.616,3.629,3.642,3.642,3.642,3.642,3.616,3.591,3.591,3.579,3.566,3.566,3.554,3.529,3.529,3.505,3.493,3.493,3.493,3.482,3.47,3.47,3.447,3.435,3.435,3.435,3.424,3.424,3.412,3.401,3.39,3.39,3.39,3.379,3.379,3.379,3.367,3.367,3.367,3.367,3.367,3.367,0,0,0,0,0,0,0,0,0,0,0,0,0,0,0,0,0,0,0,0,0,0,0,0,0,0,0,0,0,0,0,0,0,0,0,0,0,0,0,0,0,1.028,1.026,1.026,1.023,1.02,1.02,1.016,1.014,1.014,1.011,1.007,1.007,1.002,0.998,0.998,0.994,0.99,0.99,0.989,0.987,0.987,0.985,0.982,0.982,0.98,0.978,0.978,0.978,0.978,0.977,0.977,0.977,0.978,0.979,0.979,0.98,0.982,0.985,0.985,0.987,0.988,0.988,0.989,0.989,0.989,0.989,0.988,0.988,0.985,0.981,0.981,0.977,0.973,0.973,0.969,0.964,0.964,0.961,0.957,0.957,0.955,0.953,0.953,0.952,0.951,0.951,0.951,0.951,0.951,0.951,0.952,0.952,0.953,0.953,0.954,0.956,0.956,0.959,0.96,0.96,0.96,0.961,0.961,0.96,0.959,0.959,0.958,0.955,0.955,0.953,0.95,0.95,0.947,0.946,0.946,0.944,0.942,0.941,0.941,0.94,0.938,0.938,0.936,0.935,0.935,0.934,0.932,0.932,0.929,0.929,0.929,0.928,0.926,0.926,0.925,0.924,0.924,0.924,0.924,0.924,0.924,0.924,0.926,0.928,0.928,0.928,0.929,0.93,0.93,0.932,0.932,0.932,0.934,0.934,0.934,0.935,0.935,0.935,0.935,0.935,0.935,0.935,0.936,0.936,0.935,0.935,0.935,0.935,0.935,0.935,0.935,0.935,0.935,0.935,0.935,0.935,0.935,0.935,0.937,0.935,0.935,0.935,0.934,0.934,0.932,0.93,0.93,0.928,0.925,0.925,0.924,0.924,0.924,0.923,0.922,0.921,0.921,0.921,0.922,0.923,0.923,0.924,0.924,0.923,0.923,0.923,0.922,0.921,0.92,0.92,0.92,0.919,0.919,0.919,0.919,0.919,0.919,0.919,0.921,0.921,0.923,0.924,0.925,0.925,0.928,0.929,0.929,0.93,0.931,0.931,0.931,0.933,0.934,0.934,0.935,0.935,0.934,0.934,0.933,0.933,0.933,0.931,0.931,0.929,0.927,0.927,0.927,0.92,0.92,0.919,0.919,0.92,0.92,0.926,0,0,0,0,0.952,0.952,0.952,0.957,0.963,0.971,0.971,0.982,0.996,1.008,1.008,0,1.042,1.042,1.05,1.05,1.059,1.061,1.061,1.061,1.061,1.061,1.061,1.061,1.061,1.061,1.061,1.061,1.06,1.06,1.06,1.06,1.062,1.063,1.064,1.064,1.065,1.068,1.068,1.073,1.077,1.082,1.082,1.093,1.106,0,0,0,1.168,1.168,1.168,1.185,1.193,1.201,1.201,1.217,1.233,0,0,0,0,1.287,1.287,1.287,1.292,1.297,1.297,1.3,1.307,1.312,1.312,1.313,1.317,1.317,1.318,1.318,1.318,1.318,1.315,1.315,1.313,1.312,1.312,1.312,0,0,0,0,0,0,0,0,0,0,0,0,0,0,0,1.1,1.1,1.096,1.095,1.095,1.094,1.094,1.091,1.091,1.09,1.09,1.09,1.09,1.09,1.09,1.09,1.091,1.093,1.091,1.091,1.091,1.091,1.088,1.088,1.088,1.08,1.08,0,0,0,0
0.874,0.875,0.875,0.876,0.877,0.876,0.876,0.874,0.874,0.873,0.872,0.872,0.87,0.869,0.869,0.867,0.866,0.866,0.865,0.862,0.862,0.855,0.855,0,0,0,0,0.811,0.811,0.8,0.8,0.794,0.791,0.791,0.791,0.79,0.789,0.789,0.788,0.788,0.788,0.787,0.786,0.786,0.786,0.785,0.785,0.785,0.785,0.785,0.785,0.785,0.785,0.785,0.785,0.785,0.785,0.785,0.784,0.784,0.783,0.783,0.782,0.782,0.781,0.781,0.781,0.78,0.78,0.78,0.78,0.78,0.78,0.78,0.781,0.781,0.781,0.781,0.781,0.782,0.782,0.782,0.782,0.781,0.78,0.78,0.78,0.779,0.779,0.779,0.779,0.777,0.777,0.777,0.777,0.777,0.776,0.776,0.776,0.776,0.775,0.774,0.774,0.774,0.773,0.773,0.772,0.771,0.771,0.771,0.771,0.771,0.77,0.77,0.77,0.77,0.769,0.769,0.769,0.769,0.768,0.768,0.768,0.768,0.768,0.767,0.766,0.766,0.766,0.765,0.764,0.764,0.763,0.762,0.762,0.761,0.76,0.76,0.76,0.76,0.76,0.76,0.76,0.76,0.76,0.76,0.76,0.76,0.759,0.759,0.759,0.759,0.759,0.759,0.759,0.758,0.758,0.758,4.334,4.244,4.244,4.141,4.044,4.044,3.95,3.861,3.861,3.832,3.776,3.748,3.748,3.708,3.681,3.681,3.655,3.642,3.642,3.629,3.616,3.616,3.604,3.604,3.616,3.616,3.616,3.629,3.629,3.616,3.616,3.616,3.616,3.616,3.616,3.616,3.604,3.604,3.604,3.591,3.591,3.591,3.591,3.604,3.604,3.604,3.616,3.616,3.616,3.616,3.629,3.642,3.642,3.642,3.642,3.616,3.591,3.591,3.579,3.566,3.566,3.554,3.529,3.529,3.505,3.493,3.493,3.493,3.482,3.47,3.47,3.447,3.435,3.435,3.435,3.424,3.424,3.412,3.401,3.39,3.39,3.39,3.379,3.379,3.379,3.367,3.367,3.367,3.367,3.367,3.367,0,0,0,0,0,0,0,0,0,0,0,0,0,0,0,0,0,0,0,0,0,0,0,0,0,0,0,0,0,0,0,0,0,0,0,0,0,0,0,0,0,1.026,1.023,1.023,1.02,1.017,1.017,1.013,1.01,1.01,1.008,1.004,1.004,1,0.995,0.995,0.991,0.989,0.989,0.986,0.984,0.984,0.982,0.979,0.979,0.977,0.975,0.975,0.975,0.974,0.974,0.975,0.975,0.975,0.976,0.976,0.977,0.979,0.982,0.982,0.984,0.985,0.985,0.987,0.988,0.988,0.988,0.987,0.987,0.984,0.981,0.981,0.977,0.973,0.973,0.969,0.964,0.964,0.961,0.957,0.957,0.955,0.953,0.953,0.952,0.951,0.951,0.951,0.951,0.951,0.951,0.952,0.952,0.953,0.953,0.954,0.956,0.956,0.959,0.96,0.96,0.96,0.961,0.961,0.96,0.959,0.959,0.958,0.955,0.955,0.953,0.95,0.95,0.947,0.946,0.946,0.944,0.942,0.941,0.941,0.94,0.938,0.938,0.936,0.935,0.935,0.934,0.932,0.932,0.929,0.929,0.929,0.928,0.926,0.926,0.925,0.924,0.924,0.924,0.924,0.924,0.924,0.924,0.925,0.927,0.927,0.928,0.928,0.929,0.929,0.93,0.932,0.932,0.933,0.933,0.933,0.933,0.933,0.934,0.934,0.935,0.935,0.935,0.935,0.936,0.935,0.935,0.935,0.935,0.935,0.935,0.935,0.935,0.935,0.935,0.935,0.935,0.935,0.935,0.937,0.935,0.935,0.935,0.934,0.934,0.932,0.93,0.93,0.928,0.925,0.925,0.924,0.924,0.924,0.923,0.922,0.921,0.921,0.921,0.922,0.923,0.923,0.924,0.924,0.923,0.923,0.923,0.922,0.921,0.92,0.92,0.92,0.919,0.919,0.919,0.919,0.919,0.919,0.919,0.921,0.921,0.923,0.924,0.925,0.925,0.928,0.929,0.929,0.93,0.931,0.931,0.931,0.933,0.934,0.934,0.935,0.935,0.934,0.934,0.933,0.933,0.933,0.931,0.931,0.929,0.927,0.927,0.926,0.92,0.92,0.919,0.919,0.92,0.92,0.926,0.932,0.94,0.94,0.947,0.947,0.952,0.952,0.957,0.963,0.971,0.971,0.982,0.996,1.008,1.008,1.03,1.038,1.042,1.05,1.05,1.059,1.061,1.061,1.061,1.061,1.061,1.061,1.06,1.06,1.06,1.06,1.061,1.06,1.06,1.06,1.06,1.06,1.062,1.063,1.063,1.064,1.067,1.067,1.072,1.075,1.082,1.082,1.093,1.106,1.122,1.122,1.136,1.151,1.168,1.168,1.185,1.193,1.201,1.201,1.217,1.233,0,0,0,0,1.287,1.287,1.287,1.292,1.297,1.297,1.3,1.307,1.312,1.312,1.313,1.317,1.317,1.318,1.318,1.318,1.318,1.315,1.315,1.313,1.312,1.312,1.312,0,0,0,0,0,0,0,0,0,0,0,0,0,0,1.102,1.1,1.1,1.096,1.095,1.095,1.094,1.094,1.091,1.091,1.09,1.09,1.09,1.09,1.09,1.09,1.09,1.091,1.093,1.091,1.09,1.09,1.09,1.083,1.079,1.079,1.079,1.08,0,0,0,0
0.872,0.873,0.873,0.875,0.876,0.876,0.875,0.874,0.874,0.873,0.872,0.872,0.87,0.869,0.869,0.867,0.866,0.866,0.865,0.864,0.864,0.857,0.853,0.853,0.853,0,0,0,0,0.804,0.799,0.796,0.793,0.793,0.792,0.791,0.789,0.789,0.789,0.788,0.788,0.788,0.787,0.787,0.787,0.786,0.786,0.786,0.786,0.786,0.786,0.786,0.786,0.786,0.786,0.786,0.786,0.785,0.784,0.784,0.784,0.783,0.782,0.782,0.782,0.781,0.781,0.781,0.781,0.781,0.781,0.781,0.782,0.782,0.782,0.783,0.783,0.783,0.783,0.783,0.783,0.783,0.783,0.783,0.782,0.782,0.781,0.78,0.78,0.78,0.779,0.778,0.778,0.777,0.777,0.777,0.777,0.776,0.776,0.776,0.775,0.775,0.775,0.774,0.773,0.773,0.773,0.772,0.772,0.772,0.772,0.772,0.771,0.77,0.77,0.77,0.77,0.77,0.77,0.769,0.769,0.769,0.768,0.768,0.768,0.767,0.766,0.766,0.766,0.765,0.764,0.764,0.762,0.762,0.762,0.761,0.76,0.76,0.759,0.759,0.759,0.759,0.759,0.759,0.759,0.759,0.759,0.759,0.759,0.759,0.759,0.759,0.759,0.759,0.759,0.759,4.334,4.334,4.297,4.209,4.209,4.141,4.076,4.076,3.981,3.89,3.89,3.847,3.804,3.762,3.762,3.721,3.681,3.681,3.655,3.629,3.629,3.616,3.616,3.616,3.604,3.604,3.604,3.604,3.616,3.629,3.642,3.629,3.629,3.629,3.629,3.629,3.629,3.629,3.629,3.629,3.629,3.616,3.604,3.604,3.604,3.616,3.629,3.629,3.642,3.642,3.642,3.655,3.668,3.668,3.668,3.668,3.668,3.642,3.629,3.629,3.616,3.604,3.604,3.579,3.554,3.529,3.529,3.517,3.517,3.517,3.505,3.482,3.482,3.47,3.447,3.447,3.447,3.435,3.435,3.435,3.424,3.412,3.412,3.401,3.39,3.39,3.39,3.39,3.39,3.39,3.39,3.39,3.39,3.401,0,0,0,0,0,0,0,0,0,0,0,0,0,0,0,0,0,0,0,0,0,0,0,0,0,0,0,0,0,0,0,0,0,0,0,0,0,0,0,0,1.026,1.02,1.02,1.017,1.014,1.014,1.01,1.008,1.008,1.005,1.001,1.001,0.998,0.994,0.994,0.989,0.987,0.987,0.984,0.982,0.982,0.979,0.976,0.976,0.974,0.972,0.972,0.972,0.971,0.971,0.972,0.972,0.972,0.973,0.973,0.974,0.976,0.976,0.979,0.981,0.984,0.984,0.986,0.987,0.987,0.987,0.986,0.986,0.984,0.98,0.98,0.977,0.974,0.974,0.97,0.966,0.966,0.963,0.959,0.959,0.956,0.954,0.954,0.953,0.953,0.953,0.952,0.952,0.953,0.953,0.953,0.954,0.955,0.955,0.955,0.958,0.958,0.961,0.962,0.963,0.962,0.962,0.962,0.962,0.961,0.961,0.958,0.957,0.957,0.954,0.951,0.951,0.949,0.947,0.947,0.945,0.944,0.942,0.942,0.941,0.94,0.94,0.938,0.936,0.936,0.935,0.933,0.933,0.93,0.929,0.929,0.927,0.926,0.926,0.924,0.923,0.923,0.923,0.923,0.923,0.923,0.923,0.924,0.925,0.925,0.925,0.926,0.927,0.927,0.929,0.93,0.929,0.929,0.93,0.93,0.93,0.93,0.931,0.931,0.932,0.932,0.932,0.934,0.934,0.934,0.934,0.934,0.934,0.936,0.938,0.939,0.939,0.939,0.939,0.939,0.939,0.939,0.941,0.941,0.938,0.938,0.937,0.935,0.935,0.934,0.932,0.932,0.929,0.928,0.928,0.925,0.925,0.925,0.924,0.924,0.923,0.923,0.923,0.924,0.924,0.924,0.925,0.925,0.925,0.925,0.925,0.925,0.925,0.924,0.924,0.924,0.924,0.924,0.923,0.923,0.923,0.923,0.924,0.925,0.926,0.926,0.928,0.929,0.929,0.93,0.93,0.93,0.932,0.933,0.934,0.934,0.934,0.935,0.935,0.935,0.935,0.935,0.935,0.935,0.935,0.934,0.933,0.933,0.931,0.928,0.928,0.926,0.923,0.923,0.922,0.922,0.925,0.925,0.929,0.932,0.94,0.94,0.945,0.947,0.954,0.954,0.961,0.97,0.981,0.981,0.994,1.015,1.02,1.03,1.03,1.038,1.046,1.052,1.052,1.058,1.06,1.06,1.06,1.061,1.061,1.061,1.06,1.06,1.06,1.06,1.06,1.06,1.06,1.06,1.06,1.06,1.061,1.062,1.061,1.06,1.06,1.06,1.065,1.075,1.082,1.082,1.094,1.095,1.095,1.121,1.136,1.151,1.171,1.189,1.189,1.197,1.207,1.224,1.224,1.24,1.253,1.265,1.265,1.277,1.287,1.29,1.29,1.295,1.3,1.3,1.303,1.31,1.313,1.313,1.318,1.318,1.318,1.32,1.322,1.322,1.32,1.318,1.318,1.317,1.315,1.315,1.315,0,0,0,0,0,0,0,0,0,0,0,0,0,0,1.102,1.1,1.1,1.098,1.096,1.096,1.095,1.094,1.093,1.093,1.093,1.091,1.091,1.091,1.091,1.091,1.091,1.093,1.093,1.09,1.088,1.087,1.087,1.077,1.077,1.067,1.05,1.05,1.05,0,0,0
0.872,0.873,0.873,0.875,0.876,0.876,0.875,0.874,0.874,0.873,0.872,0.872,0.87,0.869,0.869,0.867,0.866,0.866,0.865,0.864,0.864,0.859,0.853,0.853,0.853,0,0,0,0,0,0.799,0.799,0.796,0.794,0.794,0.793,0.792,0.792,0.791,0.79,0.79,0.789,0.789,0.789,0.789,0.788,0.788,0.787,0.787,0.787,0.787,0.787,0.787,0.787,0.786,0.786,0.786,0.785,0.785,0.785,0.784,0.783,0.782,0.782,0.782,0.782,0.782,0.781,0.781,0.782,0.782,0.782,0.782,0.782,0.783,0.784,0.785,0.785,0.785,0.785,0.785,0.785,0.785,0.785,0.783,0.783,0.783,0.782,0.781,0.781,0.78,0.779,0.779,0.778,0.778,0.778,0.777,0.777,0.777,0.776,0.776,0.775,0.775,0.775,0.774,0.774,0.773,0.773,0.773,0.772,0.772,0.772,0.772,0.772,0.772,0.771,0.771,0.77,0.77,0.77,0.769,0.769,0.769,0.768,0.768,0.768,0.767,0.767,0.766,0.765,0.764,0.764,0.762,0.762,0.762,0.761,0.76,0.76,0.759,0.759,0.759,0.759,0.759,0.759,0.759,0.759,0.759,0.759,0.759,0.759,0.759,0.759,0.759,0.759,0.759,4.427,4.334,4.334,4.297,4.209,4.209,4.141,4.076,4.076,3.996,3.92,3.92,3.861,3.818,3.762,3.762,3.721,3.681,3.681,3.655,3.629,3.629,3.616,3.616,3.616,3.604,3.604,3.604,3.604,3.616,3.629,3.642,3.642,3.642,3.642,3.642,3.642,3.642,3.642,3.642,3.629,3.629,3.616,3.616,3.616,3.616,3.629,3.642,3.642,3.655,3.655,3.655,3.668,3.681,3.694,3.694,3.708,3.708,3.681,3.668,3.668,3.655,3.642,3.642,3.616,3.591,3.566,3.566,3.542,3.529,3.529,3.517,3.505,3.505,3.493,3.47,3.47,3.47,3.458,3.458,3.447,3.447,3.435,3.435,3.424,3.412,3.412,3.412,3.424,3.424,3.412,3.412,3.412,3.401,3.401,0,0,0,0,0,0,0,0,0,0,0,0,0,0,0,0,0,0,0,0,0,0,0,0,0,0,0,0,0,0,0,0,0,0,0,0,0,0,0,0,0,1.02,1.02,1.017,1.014,1.014,1.01,1.008,1.008,1.005,1.001,1.001,0.998,0.994,0.994,0.989,0.987,0.987,0.984,0.982,0.982,0.979,0.976,0.976,0.974,0.972,0.972,0.972,0.971,0.971,0.972,0.972,0.972,0.973,0.973,0.974,0.976,0.976,0.979,0.981,0.984,0.984,0.986,0.987,0.987,0.987,0.986,0.986,0.984,0.98,0.98,0.977,0.974,0.974,0.971,0.967,0.967,0.964,0.961,0.961,0.959,0.956,0.956,0.955,0.954,0.954,0.954,0.954,0.955,0.955,0.955,0.955,0.956,0.956,0.958,0.96,0.96,0.962,0.963,0.964,0.964,0.963,0.963,0.963,0.963,0.963,0.96,0.957,0.957,0.955,0.952,0.952,0.95,0.948,0.948,0.947,0.945,0.943,0.943,0.941,0.94,0.94,0.938,0.937,0.937,0.935,0.933,0.933,0.93,0.929,0.929,0.927,0.926,0.926,0.924,0.923,0.923,0.923,0.923,0.923,0.923,0.923,0.924,0.925,0.925,0.925,0.926,0.927,0.927,0.929,0.93,0.929,0.929,0.93,0.93,0.93,0.93,0.931,0.931,0.932,0.932,0.932,0.934,0.934,0.934,0.934,0.934,0.934,0.936,0.938,0.94,0.94,0.941,0.942,0.942,0.942,0.942,0.943,0.943,0.941,0.941,0.94,0.938,0.938,0.935,0.934,0.934,0.931,0.929,0.929,0.928,0.927,0.927,0.926,0.924,0.924,0.924,0.924,0.925,0.925,0.925,0.926,0.927,0.927,0.927,0.927,0.927,0.927,0.927,0.928,0.927,0.926,0.926,0.926,0.926,0.927,0.927,0.927,0.928,0.929,0.929,0.929,0.931,0.931,0.932,0.932,0.932,0.933,0.933,0.934,0.934,0.934,0.935,0.935,0.935,0.935,0.935,0.935,0.935,0.935,0.934,0.933,0.933,0.931,0.931,0,0,0.924,0.924,0.924,0.924,0.925,0.925,0.929,0,0,0.945,0.945,0.947,0.954,0.954,0,0,0,0,1.015,1.015,1.028,1.036,1.036,1.043,1.049,1.053,1.053,1.058,1.06,1.06,1.06,1.061,1.061,1.061,1.061,1.061,1.061,1.06,1.06,1.06,1.061,1.061,1.061,1.061,1.061,1.062,1.061,1.06,1.06,1.06,1.065,0,0,0,1.095,1.095,1.095,1.121,1.14,1.154,1.172,1.189,1.189,1.197,1.207,1.224,1.224,1.24,1.253,1.265,1.265,1.277,1.287,1.295,1.295,1.3,1.303,1.303,1.308,1.312,1.317,1.317,1.32,1.322,1.322,1.324,1.324,1.324,1.322,1.322,1.322,1.32,1.318,1.318,1.318,0,0,0,0,0,0,0,0,0,0,0,0,0,0,0,1.1,1.1,1.098,1.096,1.096,1.096,1.095,1.094,1.094,1.093,1.091,1.091,1.091,1.093,1.093,1.093,1.093,1.093,1.09,1.088,1.087,1.087,1.077,1.077,1.067,1.05,1.05,1.05,0,0,0
0.87,0.871,0.871,0.873,0.874,0.874,0.875,0.874,0.874,0.873,0.871,0.871,0.87,0.869,0.869,0.867,0.866,0.866,0.865,0.864,0.864,0.859,0.853,0.853,0.853,0,0,0.825,0.825,0.825,0.799,0.799,0.796,0.794,0.794,0.793,0.792,0.792,0.791,0.79,0.79,0.789,0.789,0.789,0.789,0.788,0.788,0.787,0.787,0.787,0.787,0.787,0.787,0.787,0.786,0.786,0.786,0.785,0.785,0.785,0.784,0.783,0.782,0.782,0.782,0.782,0.782,0.781,0.781,0.782,0.782,0.782,0.782,0.782,0.783,0.784,0.785,0.785,0.785,0.785,0.785,0.785,0.785,0.785,0.783,0.783,0.783,0.782,0.781,0.781,0.78,0.779,0.779,0.778,0.778,0.778,0.777,0.777,0.777,0.776,0.776,0.775,0.775,0.775,0.774,0.774,0.773,0.773,0.773,0.772,0.772,0.772,0.772,0.772,0.772,0.771,0.771,0.77,0.77,0.77,0.769,0.769,0.769,0.768,0.768,0.768,0.767,0.767,0.766,0.765,0.764,0.764,0.762,0.762,0.762,0.761,0.76,0.76,0.759,0.759,0.759,0.759,0.759,0.759,0.758,0.758,0.759,0.759,0.758,0.758,0.759,0.759,0.759,0.759,0.759,4.37,4.279,4.279,4.227,4.192,4.192,4.125,4.076,4.076,3.996,3.92,3.876,3.861,3.818,3.762,3.762,3.721,3.681,3.681,3.642,3.616,3.616,3.604,3.591,3.591,3.591,3.591,3.591,3.591,3.604,3.629,3.642,3.642,3.642,3.642,3.642,3.642,3.642,3.642,3.642,3.629,3.629,3.616,3.604,3.604,3.604,3.629,3.642,3.642,3.642,3.655,3.655,3.668,3.681,3.694,3.694,3.708,3.708,3.681,3.668,3.668,3.655,3.642,3.642,3.616,3.591,3.566,3.566,3.542,3.529,3.529,3.517,3.505,3.505,3.493,3.47,3.47,3.47,3.458,3.458,3.447,3.447,3.435,3.435,3.424,3.412,3.412,3.412,3.424,3.424,3.412,3.412,3.412,3.401,3.401,0,0,0,0,0,0,0,0,0,0,0,0,0,0,0,0,0,0,0,0,0,0,0,0,0,0,0,0,0,0,0,0,0,0,0,0,0,0,0,0,0,1.016,1.016,1.013,1.011,1.011,1.008,1.005,1.005,1.002,1,1,0.996,0.992,0.992,0.989,0.986,0.986,0.982,0.979,0.979,0.977,0.974,0.974,0.971,0.969,0.969,0.968,0.967,0.967,0.968,0.968,0.968,0.969,0.969,0.971,0.974,0.974,0.975,0.979,0.982,0.982,0.984,0.986,0.986,0.986,0.985,0.985,0.982,0.98,0.98,0.976,0.974,0.974,0.971,0.967,0.967,0.964,0.961,0.961,0.959,0.956,0.956,0.955,0.954,0.954,0.954,0.954,0.955,0.955,0.955,0.955,0.956,0.956,0.958,0.96,0.96,0.962,0.963,0.964,0.964,0.963,0.963,0.963,0.963,0.963,0.96,0.957,0.957,0.955,0.952,0.952,0.95,0.948,0.948,0.947,0.945,0.943,0.943,0.941,0.94,0.94,0.938,0.937,0.937,0.935,0.933,0.933,0.93,0.928,0.928,0.926,0.925,0.925,0.924,0.922,0.921,0.921,0.921,0.921,0.922,0.922,0.923,0.924,0.924,0.924,0.924,0.924,0.926,0.927,0.927,0.927,0.927,0.928,0.928,0.928,0.928,0.928,0.929,0.929,0.93,0.93,0.931,0.932,0.932,0.933,0.933,0.933,0.935,0.938,0.94,0.94,0.941,0.942,0.942,0.942,0.942,0.943,0.943,0.941,0.941,0.94,0.938,0.938,0.935,0.934,0.934,0.931,0.929,0.929,0.928,0.927,0.927,0.926,0.924,0.924,0.924,0.924,0.925,0.925,0.925,0.926,0.927,0.927,0.927,0.927,0.927,0.927,0.927,0.928,0.927,0.926,0.926,0.926,0.926,0.927,0.927,0.927,0.928,0.929,0.929,0.929,0.931,0.931,0.932,0.932,0.932,0.933,0.933,0.934,0.934,0.934,0.934,0.934,0.935,0.935,0.935,0.935,0.935,0.935,0.934,0.933,0.933,0.931,0.931,0,0,0.924,0.924,0.924,0.924,0.925,0.925,0.929,0.943,0.943,0.943,0.945,0.947,0.954,0.954,0,0,1.006,1.006,1.006,1.015,1.028,1.036,1.036,1.043,1.048,1.053,1.053,1.058,1.06,1.06,1.06,1.06,1.06,1.06,1.061,1.061,1.06,1.06,1.06,1.06,1.06,1.061,1.06,1.06,1.06,1.06,1.057,1.054,1.054,1.054,1.054,1.054,1.054,0,1.095,1.095,1.095,1.121,1.14,1.154,1.172,1.189,1.189,1.197,1.207,1.224,1.224,1.24,1.253,1.265,1.265,1.277,1.292,1.3,1.3,1.303,1.31,1.31,1.313,1.315,1.32,1.32,1.324,1.327,1.327,1.327,1.327,1.327,1.325,1.325,1.325,1.324,1.324,1.324,1.324,0,0,0,0,0,0,0,0,0,0,0,0,0,0,0,1.1,1.1,1.098,1.096,1.096,1.096,1.095,1.094,1.094,1.093,1.091,1.091,1.091,1.093,1.093,1.093,1.093,1.093,1.09,1.088,1.086,1.086,1.077,1.077,1.067,1.05,1.05,1.05,0,0,0
0.868,0.87,0.87,0.872,0.873,0.873,0.874,0.873,0.873,0.873,0.871,0.871,0.87,0.869,0.869,0.867,0.866,0.866,0.865,0.865,0.865,0.861,0.856,0.856,0.85,0.85,0,0.825,0.825,0.816,0.802,0.802,0.798,0.796,0.796,0.794,0.793,0.793,0.792,0.791,0.791,0.791,0.79,0.79,0.789,0.789,0.789,0.788,0.788,0.788,0.788,0.788,0.788,0.788,0.788,0.787,0.787,0.786,0.785,0.785,0.784,0.783,0.783,0.783,0.782,0.782,0.782,0.782,0.782,0.782,0.782,0.783,0.783,0.783,0.784,0.785,0.785,0.785,0.786,0.786,0.786,0.786,0.786,0.785,0.784,0.783,0.783,0.782,0.781,0.781,0.78,0.78,0.78,0.779,0.779,0.779,0.778,0.777,0.777,0.777,0.776,0.776,0.776,0.775,0.775,0.775,0.773,0.773,0.773,0.773,0.772,0.772,0.772,0.772,0.772,0.772,0.772,0.771,0.771,0.77,0.77,0.77,0.769,0.769,0.769,0.768,0.767,0.767,0.766,0.765,0.764,0.764,0.763,0.762,0.762,0.761,0.76,0.76,0.759,0.759,0.759,0.758,0.757,0.757,0.757,0.757,0.757,0.757,0.757,0.757,0.757,0.757,0.759,4.485,0.758,0.758,0.759,4.279,4.227,4.158,4.158,4.108,4.044,4.044,3.981,3.92,3.876,3.876,3.818,3.762,3.762,3.721,3.681,3.681,3.642,3.616,3.616,3.604,3.591,3.591,3.579,3.579,3.591,3.591,3.604,3.616,3.629,3.629,3.642,3.642,3.642,3.642,3.642,3.642,3.629,3.629,3.616,3.616,3.604,3.604,3.604,3.616,3.616,3.616,3.629,3.642,3.642,3.655,3.681,3.694,3.694,3.708,3.721,3.708,3.694,3.694,3.681,3.681,3.655,3.655,3.629,3.591,3.591,3.579,3.566,3.566,3.542,3.529,3.529,3.517,3.493,3.493,3.493,3.47,3.47,3.47,3.458,3.447,3.447,3.435,3.435,3.435,3.435,3.435,3.435,3.424,3.424,3.424,3.424,3.424,0,0,0,0,0,0,0,0,0,0,0,0,0,0,0,0,0,0,0,0,0,0,0,0,0,0,0,0,0,0,0,0,0,0,0,0,0,0,0,0,0,1.013,1.013,1.011,1.008,1.008,1.006,1.003,1.003,1.001,0.997,0.997,0.994,0.99,0.99,0.987,0.983,0.983,0.98,0.978,0.978,0.974,0.972,0.972,0.969,0.966,0.966,0.965,0.963,0.963,0.963,0.963,0.964,0.965,0.965,0.967,0.969,0.969,0.972,0.975,0.979,0.979,0.983,0.984,0.984,0.985,0.983,0.983,0.98,0.979,0.979,0.976,0.974,0.974,0.971,0.968,0.968,0.965,0.962,0.962,0.959,0.958,0.958,0.955,0.955,0.955,0.955,0.955,0.955,0.956,0.956,0.957,0.958,0.958,0.961,0.963,0.963,0.965,0.966,0.966,0.966,0.965,0.965,0.965,0.963,0.963,0.961,0.959,0.959,0.956,0.954,0.954,0.951,0.948,0.948,0.947,0.945,0.944,0.944,0.942,0.941,0.941,0.939,0.937,0.937,0.935,0.933,0.933,0.93,0.928,0.928,0.926,0.924,0.924,0.923,0.921,0.921,0.92,0.92,0.92,0.92,0.92,0.921,0.922,0.922,0.922,0.922,0.922,0.924,0.924,0.924,0.924,0.924,0.924,0.924,0.925,0.925,0.925,0.926,0.927,0.927,0.927,0.928,0.93,0.93,0.93,0.931,0.931,0.935,0,0,0,0.947,0.947,0.947,0.947,0.947,0.949,0.949,0.947,0.947,0.944,0.943,0.943,0.939,0.936,0.936,0.934,0.931,0.931,0.93,0.929,0.929,0.929,0.929,0.926,0.926,0.926,0.926,0.927,0.927,0.928,0.929,0.928,0.928,0.929,0.929,0.929,0.929,0.929,0.929,0.929,0.929,0.929,0.929,0.929,0.929,0.929,0.929,0.93,0.93,0.931,0.931,0.931,0.932,0.932,0.932,0.933,0.933,0.933,0.933,0.933,0.934,0.934,0.935,0.935,0.935,0.935,0.934,0.934,0.934,0.933,0.933,0.931,0.93,0.93,0.93,0,0,0,0,0,0,0,0.943,0.943,0.943,0.95,0.954,0.958,0.958,0,0,1.006,1.006,1.006,1.02,1.03,1.037,1.037,1.043,1.048,1.052,1.052,1.057,1.059,1.059,1.06,1.06,1.06,1.06,1.061,1.061,1.06,1.06,1.061,1.06,1.06,1.061,1.06,1.059,1.058,1.058,1.052,1.047,1.047,1.047,1.054,1.054,1.054,0,0,0,1.145,1.145,1.145,1.159,0,0,0,1.217,1.217,1.234,1.234,1.249,1.262,1.273,1.273,1.284,1.292,1.3,1.3,1.303,1.31,1.31,1.313,1.315,1.32,1.32,1.324,1.327,1.327,1.327,1.327,1.327,1.325,1.325,1.325,1.324,1.324,1.324,1.324,0,0,0,0,0,0,0,0,0,0,0,0,0,0,0,1.1,1.1,1.098,1.097,1.097,1.096,1.095,1.094,1.094,1.094,1.094,1.094,1.094,1.094,1.094,1.094,1.094,1.094,1.093,1.088,1.086,1.086,1.086,0,0,0,0,0,0,0.99,0.99
0.868,0.87,0.87,0.872,0.873,0.873,0.874,0.873,0.873,0.873,0.871,0.871,0.87,0.869,0.869,0.867,0.866,0.866,0.865,0.865,0.865,0.862,0.859,0.859,0.85,0.85,0,0,0,0.816,0.816,0,0.801,0.798,0.798,0.797,0.796,0.796,0.794,0.792,0.792,0.792,0.791,0.791,0.791,0.791,0.791,0.79,0.789,0.789,0.789,0.788,0.788,0.789,0.788,0.788,0.788,0.786,0.786,0.786,0.785,0.784,0.783,0.783,0.783,0.783,0.783,0.782,0.782,0.782,0.782,0.783,0.784,0.784,0.785,0.786,0.786,0.786,0.786,0.786,0.786,0.786,0.786,0.786,0.785,0.784,0.784,0.783,0.782,0.782,0.781,0.78,0.78,0.779,0.779,0.779,0.779,0.778,0.778,0.777,0.776,0.776,0.776,0.775,0.775,0.775,0.774,0.773,0.773,0.773,0.773,0.773,0.773,0.773,0.773,0.773,0.772,0.772,0.772,0.771,0.771,0.771,0.77,0.77,0.77,0.769,0.768,0.768,0.766,0.765,0.764,0.764,0.763,0.762,0.762,0.761,0.76,0.76,0.759,0.759,0.759,0.758,0.757,0.757,0.757,0.757,0.757,0.757,0.757,0.757,0.757,0.757,0,4.626,0.758,0.758,0.759,4.315,4.244,4.158,4.158,4.108,4.028,4.028,3.966,3.92,3.876,3.861,3.818,3.762,3.762,3.721,3.681,3.681,3.642,3.616,3.616,3.604,3.591,3.591,3.579,3.579,3.591,3.591,3.604,3.616,3.629,3.629,3.642,3.642,3.629,3.629,3.629,3.616,3.616,3.616,3.604,3.591,3.579,3.579,3.579,3.579,3.579,3.579,3.591,3.604,3.604,3.629,3.655,3.668,3.668,3.681,3.694,3.694,3.694,3.694,3.694,3.694,3.681,3.681,3.655,3.616,3.616,3.591,3.579,3.579,3.566,3.542,3.542,3.529,3.517,3.517,3.505,3.482,3.482,3.482,3.458,3.458,3.458,3.447,3.447,3.447,3.447,3.447,3.447,3.435,3.424,3.424,3.424,3.424,3.458,0,0,0,0,0,0,0,0,0,0,0,0,0,0,0,0,0,0,0,0,0,0,0,0,0,0,0,0,0,0,0,0,0,0,0,0,0,0,0,0,1.013,1.013,1.011,1.008,1.008,1.006,1.003,1.003,1.001,0.997,0.997,0.994,0.99,0.99,0.987,0.983,0.983,0.98,0.978,0.978,0.974,0.972,0.972,0.969,0.966,0.966,0.965,0.963,0.963,0.963,0.963,0.964,0.965,0.965,0.967,0.969,0.969,0.972,0.975,0.979,0.979,0.983,0.984,0.984,0.985,0.983,0.983,0.98,0.979,0.979,0.976,0.974,0.974,0.971,0.968,0.968,0.965,0.963,0.963,0.961,0.959,0.959,0.957,0.955,0.955,0.955,0.956,0.957,0.958,0.958,0.959,0.961,0.961,0.963,0.966,0.966,0.968,0.969,0.97,0.969,0.968,0.968,0.967,0.965,0.965,0.963,0.96,0.96,0.957,0.954,0.954,0.951,0.948,0.948,0.947,0.946,0.944,0.944,0.942,0.941,0.941,0.94,0.938,0.938,0.936,0.933,0.933,0.931,0.928,0.928,0.926,0.924,0.924,0.923,0.921,0.921,0.92,0.92,0.92,0.92,0.92,0.921,0.922,0.922,0.922,0.922,0.922,0.924,0.924,0.924,0.924,0.924,0.924,0.924,0.925,0.925,0.925,0.926,0.927,0.927,0.927,0.928,0.93,0.93,0.93,0.931,0.931,0,0,0,0,0.95,0.95,0.958,0.958,0.959,0.96,0.96,0.952,0.952,0.949,0.947,0.947,0.947,0,0,0.938,0.935,0.935,0.933,0.931,0.931,0.935,0.93,0.93,0.933,0.929,0.929,0.929,0.929,0.93,0.93,0.93,0.931,0.932,0.932,0.932,0.932,0.932,0.932,0.932,0.932,0.932,0.931,0.931,0.932,0.931,0.931,0.931,0.931,0.931,0.932,0.932,0.932,0.932,0.932,0.932,0.932,0.932,0.932,0.933,0.933,0.933,0.934,0.934,0.934,0.934,0.934,0.934,0.934,0.933,0.933,0.931,0.93,0.93,0.929,0.928,0.928,0.928,0,0,0,0,0.943,0.943,0.943,0.95,0.954,0,0.968,0.968,0,1.009,1.009,1.009,1.02,1.03,1.038,1.038,1.043,1.048,1.052,1.052,1.056,1.057,1.057,1.059,1.059,1.059,1.059,1.06,1.061,1.061,1.061,1.061,1.06,1.06,1.061,1.06,1.058,1.054,1.054,1.048,1.047,1.04,1.034,1.034,1.034,0,0,0,0,0,0,0,0,0,0,0,0,1.248,1.248,1.248,1.26,1.273,1.281,1.281,1.29,1.297,1.303,1.303,1.308,1.313,1.317,1.317,1.32,1.325,1.325,1.327,1.329,1.329,1.33,1.33,1.33,1.33,1.329,1.329,1.329,1.329,1.329,1.329,1.33,0,0,0,0,0,0,0,0,0,0,0,0,0,0,0,0,1.101,1.098,1.098,1.097,1.096,1.095,1.095,1.095,1.095,1.095,1.095,1.095,1.096,1.096,1.095,1.095,1.094,1.088,1.088,0,0,0,0,0,1.018,1.018,0,0.984,0.984
0.868,0.87,0.87,0.872,0.873,0.873,0.874,0.873,0.873,0.873,0.871,0.871,0.87,0.869,0.869,0.867,0.866,0.866,0.865,0.864,0.864,0.862,0.859,0.859,0.85,0.843,0.843,0.843,0,0.816,0.816,0,0.801,0.798,0.798,0.797,0.796,0.796,0.794,0.792,0.792,0.792,0.791,0.791,0.791,0.791,0.791,0.79,0.789,0.789,0.789,0.788,0.788,0.789,0.788,0.788,0.788,0.786,0.786,0.786,0.785,0.784,0.783,0.783,0.783,0.783,0.783,0.782,0.782,0.782,0.782,0.783,0.784,0.784,0.785,0.786,0.786,0.786,0.786,0.786,0.786,0.786,0.786,0.786,0.785,0.784,0.784,0.783,0.782,0.782,0.781,0.78,0.78,0.779,0.779,0.779,0.779,0.778,0.778,0.777,0.776,0.776,0.776,0.775,0.775,0.775,0.774,0.773,0.773,0.773,0.773,0.773,0.773,0.773,0.773,0.773,0.772,0.772,0.772,0.771,0.771,0.771,0.77,0.77,0.77,0.769,0.768,0.768,0.766,0.765,0.764,0.764,0.763,0.762,0.762,0.761,0.76,0.76,0.759,0.758,0.758,0.758,0.757,0.757,0.757,0.757,0.757,0.757,0.756,0.756,0.757,0.757,0.757,4.822,0.758,0.758,0.758,0.758,4.315,4.192,4.192,4.108,4.028,4.028,3.966,3.92,3.92,3.861,3.818,3.762,3.762,3.721,3.681,3.681,3.642,3.616,3.616,3.604,3.604,3.604,3.591,3.591,3.604,3.604,3.616,3.629,3.642,3.642,3.642,3.642,3.629,3.629,3.629,3.616,3.616,3.616,3.604,3.591,3.579,3.579,3.579,3.579,3.579,3.579,3.591,3.604,3.604,3.629,3.655,3.668,3.668,3.681,3.694,3.694,3.694,3.694,3.694,3.708,3.694,3.694,3.668,3.642,3.642,3.616,3.604,3.604,3.579,3.566,3.566,3.542,3.529,3.529,3.517,3.505,3.493,3.493,3.482,3.47,3.47,3.458,3.458,3.458,3.458,3.458,3.458,3.447,3.447,3.447,3.447,3.447,3.458,0,0,0,0,0,0,0,0,0,0,0,0,0,0,0,0,0,0,0,0,0,0,0,0,0,0,0,0,0,0,0,0,0,0,0,0,0,0,0,0,1.013,1.013,1.009,1.006,1.006,1.004,1.001,1.001,0.999,0.996,0.996,0.993,0.989,0.989,0.986,0.982,0.982,0.978,0.975,0.975,0.973,0.969,0.969,0.966,0.963,0.963,0.962,0.961,0.961,0.96,0.96,0.961,0.962,0.962,0.963,0.965,0.965,0.968,0.972,0.975,0.975,0.981,0.983,0.983,0.983,0.983,0.981,0.98,0.977,0.977,0.975,0.974,0.974,0.971,0.968,0.968,0.965,0.963,0.963,0.961,0.959,0.959,0.957,0.955,0.955,0.955,0.956,0.957,0.958,0.958,0.959,0.961,0.961,0.963,0.966,0.966,0.968,0.969,0.97,0.969,0.968,0.968,0.967,0.965,0.965,0.963,0.96,0.96,0.957,0.954,0.954,0.951,0.948,0.948,0.947,0.946,0.944,0.944,0.942,0.941,0.941,0.94,0.938,0.938,0.936,0.933,0.933,0.931,0.928,0.928,0.926,0.924,0.924,0.923,0.921,0.921,0.92,0.92,0.92,0.92,0.92,0.921,0.922,0.921,0.921,0.921,0.921,0.921,0.921,0.921,0.921,0.922,0.922,0.922,0.922,0.923,0.923,0.924,0.924,0.925,0.925,0.925,0.927,0.927,0.928,0.928,0.928,0,0,0,0,0.955,0.955,0.958,0.958,0.959,0.96,0.96,0,0,0,0,0,0,0,0,0.941,0.939,0.939,0.936,0.935,0.935,0.935,0.935,0.933,0.933,0.933,0.933,0.934,0.934,0.934,0.934,0.934,0.934,0.935,0.935,0.935,0.935,0.935,0.935,0.935,0.935,0.935,0.934,0.934,0.934,0.933,0.932,0.932,0.932,0.932,0.932,0.932,0.932,0.932,0.932,0.932,0.932,0.932,0.932,0.933,0.933,0.933,0.934,0.934,0.934,0.934,0.934,0.934,0.934,0.933,0.933,0.931,0.93,0.93,0.929,0.928,0.928,0.928,0,0,0,0,0.943,0.943,0.943,0.95,0.954,0,0.968,0.968,0,1.009,1.009,1.009,1.02,1.03,1.038,1.038,1.044,1.049,1.052,1.052,1.056,1.057,1.057,1.059,1.059,1.059,1.059,1.06,1.061,1.061,1.061,1.061,1.061,1.061,1.061,1.06,1.058,1.054,1.054,1.048,1.048,1.04,1.034,1.034,1.034,0,0,0,0,0,0,0,0,0,0,0,0,0,1.276,1.276,1.276,1.284,1.29,1.297,1.297,1.302,1.307,1.307,1.31,1.317,1.32,1.32,1.324,1.327,1.327,1.33,1.33,1.33,1.332,1.332,1.332,1.332,1.332,1.332,1.33,1.33,1.33,1.33,1.33,0,0,0,0,0,0,0,0,0,0,0,0,0,0,0,0,0,1.101,1.1,1.1,1.098,1.098,1.098,1.097,1.096,1.096,1.096,1.097,1.098,1.098,1.098,1.1,1.095,1.095,0,0,0,0,0,0,1.018,1.018,0,0.984,0.984
0.868,0.87,0.87,0.872,0.873,0.873,0.874,0.873,0.873,0.873,0.871,0.871,0.87,0.869,0.869,0.867,0.866,0.866,0.865,0.864,0.864,0.863,0.861,0.861,0.853,0.843,0.843,0.843,0.826,0.822,0.814,0.814,0.808,0.801,0.801,0.799,0.798,0.798,0.797,0.795,0.795,0.794,0.794,0.794,0.794,0.793,0.792,0.792,0.791,0.791,0.791,0.79,0.789,0.789,0.789,0.788,0.788,0.787,0.786,0.786,0.785,0.785,0.784,0.784,0.783,0.783,0.783,0.783,0.783,0.783,0.783,0.783,0.785,0.786,0.786,0.786,0.786,0.786,0.787,0.787,0.787,0.786,0.786,0.786,0.785,0.784,0.784,0.783,0.782,0.782,0.782,0.78,0.78,0.78,0.779,0.779,0.779,0.778,0.778,0.777,0.776,0.776,0.776,0.775,0.775,0.775,0.774,0.773,0.773,0.773,0.773,0.773,0.773,0.773,0.773,0.773,0.772,0.772,0.772,0.772,0.771,0.771,0.77,0.77,0.77,0.769,0.768,0.768,0.766,0.766,0.764,0.764,0.763,0.762,0.762,0.761,0.76,0.76,0.759,0.758,0.758,0.757,0.757,0.757,0.757,0.757,0.756,0.756,0.756,0.756,0.756,0.756,0.756,0.757,0.757,0.757,0.757,0.757,4.315,4.192,4.192,4.108,4.028,4.028,3.95,3.905,3.905,3.861,3.818,3.762,3.762,3.721,3.681,3.681,3.642,3.616,3.616,3.604,3.604,3.604,3.591,3.591,3.604,3.604,3.616,3.629,3.642,3.642,3.642,3.642,3.629,3.616,3.616,3.604,3.591,3.591,3.579,3.566,3.542,3.542,3.542,3.542,3.542,3.542,3.554,3.566,3.566,3.579,3.616,3.629,3.629,3.642,3.655,3.655,3.668,3.668,3.668,3.681,3.681,3.681,3.668,3.642,3.642,3.616,3.604,3.604,3.579,3.566,3.566,3.542,3.529,3.529,3.517,3.505,3.493,3.493,3.482,3.47,3.47,3.458,3.458,3.458,3.458,3.458,3.458,3.447,3.447,3.447,3.447,3.447,3.458,0,0,0,0,0,0,0,0,0,0,0,0,0,0,0,0,0,0,0,0,0,0,0,0,0,0,0,0,0,0,0,0,0,0,0,0,0,0,0,0,0,0,1.009,1.004,1.004,1.002,1,1,0.998,0.995,0.995,0.992,0.989,0.989,0.984,0.98,0.98,0.977,0.974,0.974,0.971,0.968,0.968,0.964,0.963,0.963,0.96,0.958,0.958,0.958,0.958,0.958,0.958,0.958,0.959,0.961,0.961,0.963,0.968,0.968,0.974,0.979,0.981,0.981,0.981,0.981,0.98,0.978,0.976,0.976,0.974,0.973,0.973,0.97,0.967,0.967,0.965,0.963,0.963,0.962,0.96,0.96,0.959,0.957,0.957,0.957,0.958,0.959,0.961,0.961,0.962,0.964,0.964,0.966,0.969,0.971,0.971,0.973,0.973,0.972,0.971,0.971,0.97,0.967,0.967,0.964,0.962,0.962,0.958,0.955,0.955,0.951,0.948,0.948,0.947,0.946,0.944,0.944,0.942,0.941,0.941,0.941,0.939,0.939,0.937,0.935,0.935,0.931,0.929,0.929,0.927,0.926,0.926,0.924,0.923,0.922,0.922,0.921,0.921,0.921,0.921,0.922,0.922,0.921,0.921,0.921,0.921,0.921,0.921,0.921,0.921,0.921,0.921,0.921,0.921,0.921,0.921,0.922,0.923,0.924,0.924,0.925,0.925,0.925,0.926,0.926,0.926,0,0,0,0,0.955,0.955,0.958,0.958,0.959,0.96,0.96,0.963,0.963,0,0,0,0,0,0.945,0.941,0.939,0.939,0.936,0.935,0.935,0.935,0.935,0.933,0.933,0.933,0.933,0.934,0.934,0.934,0.934,0.934,0.934,0.935,0.935,0.935,0.935,0.935,0.935,0.935,0.935,0.935,0.934,0.934,0.934,0.933,0.932,0.932,0.932,0.931,0.931,0.93,0.93,0.93,0.929,0.929,0.929,0.929,0.929,0.929,0.929,0.929,0.929,0.93,0.93,0.931,0.931,0.931,0.931,0.931,0.931,0.93,0.93,0.93,0.929,0.928,0.928,0.928,0.929,0,0,0,0.941,0.941,0.941,0.946,0.95,0.955,0.955,0.963,0,1.009,1.009,1.009,1.012,1.022,1.031,1.031,1.037,1.045,1.05,1.05,1.054,1.057,1.057,1.058,1.059,1.059,1.059,1.06,1.061,1.061,1.061,1.061,1.061,1.061,1.061,1.06,1.058,1.054,1.054,1.045,1.045,1.033,1.025,1.025,1.02,1.012,1.012,1.007,1.007,0,0,0,0,0,0,0,0,0,1.276,1.276,1.276,1.284,1.29,1.297,1.297,1.302,1.307,1.307,1.31,1.317,1.32,1.32,1.324,1.327,1.327,1.33,1.33,1.33,1.332,1.332,1.332,1.332,1.332,1.332,1.33,1.33,1.33,1.33,1.33,0,0,0,0,0,0,0,0,0,0,0,0,0,0,0,0,0,1.101,1.1,1.1,1.098,1.098,1.098,1.097,1.096,1.096,1.096,1.097,1.098,1.098,1.098,1.1,1.095,1.095,0,0,0,0,0,0,1.018,1.018,0.987,0.975,0.975
0.869,0.87,0.87,0.873,0.873,0.873,0.874,0.873,0.873,0.873,0.871,0.871,0.87,0.869,0.869,0.867,0.866,0.866,0.865,0.865,0.865,0.863,0.861,0.861,0.855,0.847,0.847,0.847,0.826,0.826,0.814,0.814,0.808,0.808,0,0.802,0.801,0.801,0.8,0.798,0.798,0.797,0.797,0.797,0.797,0.796,0.794,0.794,0.793,0.792,0.792,0.792,0.791,0.791,0.79,0.789,0.789,0.788,0.786,0.786,0.786,0.785,0.785,0.785,0.784,0.783,0.783,0.783,0.783,0.783,0.783,0.784,0.785,0.786,0.786,0.786,0.787,0.787,0.787,0.787,0.787,0.786,0.786,0.786,0.785,0.784,0.784,0.783,0.782,0.782,0.782,0.781,0.781,0.78,0.779,0.779,0.779,0.778,0.778,0.777,0.776,0.776,0.776,0.775,0.775,0.775,0.774,0.773,0.773,0.773,0.773,0.773,0.773,0.773,0.773,0.773,0.773,0.773,0.773,0.772,0.772,0.772,0.772,0.771,0.771,0.77,0.769,0.769,0.768,0.766,0.764,0.764,0.763,0.762,0.762,0.761,0.76,0.76,0.759,0.758,0.758,0.757,0.757,0.757,0.757,0.757,0.756,0.756,0.756,0.756,0.756,0.756,0.756,0.757,0.757,0.757,0.757,0.757,4.37,4.244,4.244,4.141,4.028,4.028,3.935,3.89,3.89,3.861,3.818,3.776,3.776,3.735,3.694,3.694,3.668,3.642,3.642,3.629,3.629,3.629,3.629,3.616,3.616,3.616,3.629,3.642,3.655,3.655,3.642,3.642,3.629,3.604,3.604,3.579,3.566,3.566,3.554,3.529,3.517,3.517,3.505,3.505,3.505,3.505,3.505,3.517,3.517,3.542,3.566,3.566,3.579,3.604,3.616,3.616,3.629,3.642,3.642,3.655,3.655,3.655,3.642,3.629,3.629,3.616,3.604,3.604,3.591,3.579,3.579,3.554,3.542,3.542,3.529,3.517,3.505,3.505,3.493,3.482,3.482,3.47,3.458,3.458,3.458,3.47,3.47,3.458,3.458,3.458,3.47,3.47,3.482,0,0,0,0,0,0,0,0,0,0,0,0,0,0,0,0,0,0,0,0,0,0,0,0,0,0,0,0,0,0,0,0,0,0,0,0,0,0,0,0,0,0,0,1.004,1.002,1,0.999,0.999,0.997,0.993,0.993,0.991,0.988,0.988,0.984,0.98,0.98,0.976,0.973,0.973,0.97,0.966,0.966,0.963,0.962,0.962,0.959,0.957,0.957,0.956,0.956,0.956,0.956,0.956,0.956,0.958,0.958,0.96,0.968,0.968,0.974,0.979,0.98,0.98,0.98,0.98,0.979,0.976,0.975,0.975,0.974,0.973,0.973,0.97,0.967,0.967,0.965,0.964,0.964,0.963,0.962,0.962,0.961,0.96,0.96,0.96,0.961,0.962,0.963,0.963,0.964,0.967,0.967,0.968,0.972,0.974,0.974,0.974,0.975,0.974,0.974,0.974,0.971,0.968,0.968,0.965,0.962,0.962,0.958,0.955,0.955,0.951,0.949,0.949,0.947,0.945,0.944,0.944,0.943,0.942,0.942,0.941,0.94,0.94,0.938,0.935,0.935,0.933,0.93,0.93,0.929,0.927,0.927,0.925,0.924,0.924,0.924,0.924,0.923,0.923,0.923,0.924,0.924,0.923,0.922,0.922,0.922,0.922,0.922,0.922,0.921,0.921,0.921,0.921,0.921,0.921,0.921,0.922,0.923,0.924,0.924,0.924,0.924,0.924,0.923,0.923,0.923,0,0,0,0,0,0,0,0,0.967,0.967,0.966,0.963,0.963,0.963,0.958,0.954,0.954,0.954,0.945,0.945,0.944,0.941,0.941,0.941,0.941,0.941,0.939,0.939,0.939,0.939,0.938,0.938,0.938,0.937,0.936,0.936,0.936,0.937,0.938,0.938,0.937,0.937,0.937,0.937,0.937,0.936,0.935,0.935,0.935,0.934,0.933,0.933,0.932,0.93,0.93,0.929,0.927,0.927,0.926,0.926,0.926,0.925,0.925,0.925,0.925,0.925,0.925,0.926,0.926,0.927,0.928,0.928,0.928,0.928,0.929,0.929,0.929,0.93,0.929,0.929,0.929,0.929,0.929,0.93,0,0,0.941,0.941,0.941,0.941,0.944,0.948,0.948,0.955,0.964,0.976,0.976,0.989,0.999,1.008,1.008,1.019,1.029,1.04,1.04,1.048,1.054,1.057,1.057,1.058,1.06,1.06,1.06,1.061,1.062,1.062,1.062,1.063,1.063,1.062,1.062,1.062,1.06,1.06,1.054,1.045,1.045,1.033,1.021,1.021,1.013,1.008,1.008,1.005,1.001,1.001,1,1,0,0,0,0,0,0,0,0,0,0,1.298,1.298,1.298,1.303,1.307,1.307,1.312,1.318,1.322,1.322,1.327,1.329,1.329,1.332,1.332,1.332,1.334,1.334,1.334,1.334,1.332,1.332,1.332,1.33,1.33,1.33,0,0,0,0,0,0,0,0,0,0,0,0,0,0,0,0,0,0,0,0,0,0,0,0,0,0,0,0,0,0,1.102,1.102,0,0,0,0,0,0,0,0,0,0,0,0.987,0.969,0.969
0.869,0.87,0.87,0.873,0.873,0.873,0.874,0.873,0.873,0.873,0.871,0.871,0.87,0.869,0.869,0.867,0.866,0.866,0.865,0.865,0.865,0.863,0.861,0.861,0.855,0.847,0.847,0.847,0.826,0.826,0.814,0.814,0.808,0.807,0.807,0.802,0.801,0.801,0.8,0.798,0.798,0.797,0.797,0.797,0.797,0.796,0.794,0.794,0.793,0.792,0.792,0.792,0.791,0.791,0.79,0.789,0.789,0.788,0.786,0.786,0.786,0.785,0.785,0.785,0.784,0.783,0.783,0.783,0.783,0.783,0.783,0.784,0.785,0.786,0.786,0.786,0.786,0.786,0.786,0.786,0.786,0.786,0.786,0.786,0.785,0.784,0.784,0.783,0.782,0.782,0.782,0.781,0.781,0.78,0.779,0.779,0.779,0.778,0.778,0.777,0.776,0.776,0.776,0.775,0.775,0.775,0.774,0.773,0.773,0.773,0.773,0.773,0.773,0.773,0.773,0.773,0.773,0.773,0.773,0.772,0.772,0.772,0.772,0.771,0.771,0.77,0.769,0.769,0.768,0.766,0.764,0.764,0.763,0.762,0.762,0.761,0.76,0.76,0.759,0.758,0.758,0.757,0.757,0.757,0.757,0.757,0.756,0.756,0.756,0.756,0.756,0.756,0.756,0.757,0.757,0.757,0.757,0.757,4.446,4.279,4.279,4.158,4.028,4.028,3.935,3.89,3.89,3.861,3.818,3.776,3.776,3.748,3.721,3.721,3.694,3.668,3.668,3.668,3.655,3.655,3.655,3.655,3.655,3.655,3.655,3.668,3.668,3.655,3.642,3.642,3.629,3.604,3.604,3.579,3.566,3.566,3.554,3.529,3.517,3.517,3.505,3.505,3.505,3.505,3.505,3.517,3.517,3.542,3.566,3.566,3.579,3.604,3.616,3.616,3.629,3.642,3.642,3.655,3.655,3.655,3.642,3.629,3.629,3.616,3.604,3.604,3.591,3.579,3.579,3.566,3.542,3.542,3.542,3.529,3.505,3.505,3.493,3.482,3.482,3.482,3.47,3.47,3.47,3.47,3.47,3.47,3.47,3.47,3.482,3.482,3.505,0,0,0,0,0,0,0,0,0,0,0,0,0,0,0,0,0,0,0,0,0,0,0,0,0,0,0,0,0,0,0,0,0,0,0,0,0,0,0,0,0,0,0,0,1.002,1,0.999,0.999,0.997,0.993,0.993,0.991,0.988,0.988,0.984,0.98,0.98,0.976,0.973,0.973,0.97,0.966,0.966,0.963,0.962,0.962,0.959,0.957,0.957,0.956,0.956,0.956,0.956,0.956,0.956,0.958,0.958,0.96,0,0,0,0.98,0.98,0.98,0.98,0.98,0.979,0.976,0.975,0.975,0.974,0.973,0.973,0.97,0.967,0.967,0.966,0.965,0.965,0.964,0.963,0.963,0.963,0.963,0.963,0.963,0.963,0.964,0.965,0.965,0.967,0.969,0.969,0.972,0.974,0.975,0.975,0.976,0.976,0.975,0.974,0.974,0.973,0.97,0.97,0.965,0.963,0.963,0.958,0.955,0.955,0.951,0.949,0.949,0.947,0.945,0.944,0.944,0.943,0.942,0.942,0.941,0.941,0.941,0.939,0.937,0.937,0.935,0.933,0.933,0.931,0.929,0.929,0.927,0.927,0.927,0,0.925,0.925,0.926,0.925,0.924,0.924,0.924,0.924,0.924,0.923,0.922,0.922,0.922,0.921,0.921,0.922,0.922,0.922,0.922,0.922,0.923,0.923,0.924,0.924,0.924,0.924,0.924,0.923,0.923,0.923,0,0,0,0,0,0,0,0,0.976,0.973,0.973,0.968,0.963,0.963,0.958,0.954,0.954,0.954,0,0,0.946,0.944,0.944,0.943,0.942,0.942,0.942,0.941,0.941,0.941,0.941,0.941,0.941,0.939,0.939,0.94,0.94,0.94,0.94,0.94,0.939,0.939,0.939,0.939,0.938,0.938,0.936,0.935,0.935,0.935,0.933,0.933,0.932,0.93,0.93,0.929,0.927,0.927,0.926,0.926,0.926,0.925,0.925,0.925,0.925,0.925,0.925,0.926,0.926,0.927,0.928,0.928,0.928,0.928,0.929,0.929,0.929,0.93,0.93,0.929,0.929,0.929,0.929,0.93,0,0,0,0,0.941,0.941,0.944,0.948,0.948,0.955,0.964,0.976,0.976,0.989,0.999,1.008,1.008,1.019,1.029,1.04,1.04,1.048,1.054,1.057,1.057,1.059,1.06,1.061,1.061,1.062,1.063,1.063,1.064,1.064,1.064,1.064,1.064,1.064,1.061,1.061,1.054,1.054,0,0,1.021,1.021,1.013,1.008,1.008,1.005,1.001,1.001,1,1,0,0,0,0,0,0,0,0,0,0,0,0,0,0,0,0,1.32,1.32,1.325,1.325,1.329,1.332,1.332,1.332,1.334,1.334,1.336,1.336,1.336,1.334,1.334,0,0,0,0,0,0,0,0,0,0,0,0,0,0,0,0,0,0,0,0,0,0,0,0,0,0,0,0,0,0,0,0,0,0,0,0,0,0,0,0,0,0,0,0,0,0,0,0,0,0.969,0.969
0.87,0.872,0.872,0.873,0.874,0.874,0.874,0.873,0.873,0.873,0.871,0.871,0.87,0.869,0.869,0.867,0.867,0.867,0.865,0.865,0.865,0.863,0.862,0.862,0.856,0.849,0.849,0.849,0,0,0.82,0.82,0.813,0.807,0.807,0.807,0.805,0.805,0.803,0.801,0.801,0.801,0.8,0.799,0.799,0.797,0.796,0.796,0.794,0.794,0.794,0.792,0.792,0.792,0.791,0.789,0.789,0.788,0.787,0.787,0.786,0.785,0.785,0.785,0.785,0.784,0.784,0.783,0.783,0.784,0.784,0.785,0.785,0.786,0.786,0.786,0.786,0.786,0.786,0.786,0.786,0.786,0.786,0.785,0.785,0.784,0.784,0.783,0.783,0.783,0.782,0.781,0.781,0.78,0.779,0.779,0.779,0.777,0.777,0.777,0.776,0.776,0.776,0.775,0.775,0.775,0.774,0.774,0.774,0.773,0.773,0.773,0.773,0.773,0.773,0.773,0.773,0.773,0.773,0.773,0.772,0.772,0.772,0.771,0.771,0.77,0.769,0.769,0.768,0.766,0.765,0.765,0.764,0.762,0.762,0.762,0.761,0.761,0.76,0.759,0.759,0.758,0.757,0.757,0.757,0.757,0.756,0.756,0.756,0.755,0.755,0.755,0.756,0.757,0.757,0.757,4.647,4.446,4.446,4.279,4.175,4.158,4.028,4.028,3.92,3.89,3.89,3.861,3.818,3.776,3.776,3.748,3.721,3.721,3.694,3.668,3.668,3.668,3.655,3.655,3.655,3.655,3.655,3.655,3.655,3.668,3.668,3.655,3.642,3.642,3.616,3.591,3.591,3.566,3.542,3.542,3.529,3.505,3.505,3.482,3.47,3.47,3.47,3.47,3.47,3.482,3.482,3.493,3.517,3.517,3.529,3.554,3.566,3.566,3.579,3.591,3.591,3.616,3.616,3.616,3.604,3.604,3.604,3.591,3.579,3.579,3.579,3.566,3.566,3.554,3.542,3.542,3.542,3.529,3.505,3.505,3.493,3.482,3.482,3.482,3.47,3.47,3.47,3.47,3.47,3.47,3.47,3.47,3.482,3.482,3.505,0,0,0,0,0,0,0,0,0,0,0,0,0,0,0,0,0,0,0,0,0,0,0,0,0,0,0,0,0,0,0,0,0,0,0,0,0,0,0,0,0,0,0,0,1.002,1,0.998,0.998,0.997,0.993,0.993,0.991,0.988,0.988,0.984,0.98,0.98,0.975,0.973,0.973,0.97,0.966,0.966,0.963,0.961,0.961,0.958,0.956,0.956,0.955,0.955,0.955,0.955,0.955,0.955,0.955,0.955,0.96,0,0,0,0.98,0.98,0.98,0.977,0.977,0.976,0.975,0.975,0.974,0.974,0.973,0.973,0.97,0.967,0.967,0.966,0.965,0.965,0.964,0.963,0.963,0.963,0.963,0.963,0.963,0.963,0.964,0.965,0.965,0.967,0.969,0.969,0.972,0.974,0.975,0.975,0.976,0.976,0.975,0.974,0.974,0.973,0.97,0.97,0.965,0.963,0.963,0.958,0.955,0.955,0.951,0.949,0.949,0.947,0.945,0.944,0.944,0.943,0.942,0.942,0.941,0.941,0.941,0.939,0.937,0.937,0.935,0.933,0.933,0.931,0.929,0.929,0.927,0.927,0.927,0.928,0.925,0.925,0.926,0.925,0.924,0.924,0.924,0.924,0.924,0.923,0.922,0.922,0.922,0.921,0.921,0.922,0.922,0.922,0.922,0.922,0.923,0.923,0.924,0.924,0.924,0.924,0.923,0.918,0.918,0.918,0,0,0,0,0,0,0,0,0.976,0.973,0.973,0.968,0.963,0.963,0.958,0.954,0.954,0.954,0,0,0.946,0.944,0.944,0.943,0.942,0.942,0.942,0.941,0.941,0.941,0.941,0.941,0.941,0.939,0.939,0.94,0.94,0.94,0.94,0.94,0.939,0.939,0.939,0.939,0.938,0.938,0.936,0.935,0.935,0.935,0.933,0.933,0.932,0.929,0.929,0.927,0.924,0.924,0.924,0.923,0.923,0.921,0.921,0.921,0.921,0.921,0.921,0.922,0.922,0.924,0.924,0.924,0.924,0.925,0.924,0.924,0.926,0.927,0.927,0.927,0.927,0.926,0.926,0.926,0.926,0.928,0,0,0.935,0.935,0.936,0.936,0.941,0.947,0.953,0.953,0.963,0.974,0.985,0.985,1.008,1.019,1.029,1.04,1.04,1.048,1.054,1.057,1.057,1.059,1.06,1.061,1.061,1.062,1.063,1.063,1.064,1.064,1.064,1.064,1.064,1.064,1.061,1.061,1.054,1.054,0,0,1.021,1.021,1.013,1.008,1.008,1.005,1.001,1.001,1,1,1.002,1.002,0,0,0,0,0,0,0,0,0,0,0,0,0,0,1.32,1.32,1.325,1.325,1.329,1.33,1.33,1.332,1.334,1.334,1.336,1.336,1.336,1.334,1.334,1.334,1.334,1.332,1.332,1.33,1.33,1.33,1.329,1.329,0,0,0,0,0,0,0,0,0,0,0,0,0,0,0,0,0,0,0,0,0,0,0,0,0,0,0,0,0,0,0,0,0,0,0,0,0,0,0,0,0.969,0.969
0.871,0.873,0.873,0.873,0.873,0.873,0.874,0.873,0.873,0.873,0.871,0.871,0.87,0.869,0.869,0.867,0.866,0.866,0.865,0.865,0.865,0.864,0.862,0.862,0.857,0.85,0.85,0.85,0,0,0.826,0.822,0.818,0.811,0.811,0.81,0.809,0.809,0.806,0.805,0.804,0.804,0.803,0.801,0.801,0.8,0.798,0.798,0.797,0.795,0.795,0.794,0.792,0.792,0.792,0.79,0.79,0.789,0.788,0.788,0.787,0.786,0.786,0.786,0.786,0.785,0.785,0.785,0.785,0.785,0.785,0.785,0.786,0.786,0.786,0.786,0.786,0.786,0.786,0.786,0.786,0.785,0.785,0.785,0.785,0.784,0.784,0.783,0.783,0.783,0.782,0.781,0.781,0.78,0.779,0.779,0.779,0.777,0.777,0.777,0.776,0.776,0.776,0.775,0.775,0.775,0.774,0.774,0.774,0.773,0.773,0.773,0.773,0.773,0.773,0.773,0.773,0.773,0.773,0.773,0.772,0.772,0.772,0.772,0.772,0.77,0.769,0.769,0.768,0.767,0.765,0.765,0.764,0.763,0.763,0.762,0.761,0.761,0.76,0.759,0.759,0.758,0.758,0.758,0.757,0.757,0.756,0.756,0.755,0.755,0.755,0.755,0.755,0.756,0.756,0.756,4.986,4.986,0,0,4.175,4.175,4.028,4.028,3.905,3.876,3.876,3.861,3.818,3.79,3.79,3.762,3.748,3.748,3.721,3.708,3.708,3.694,3.681,3.681,3.681,3.681,3.681,3.681,3.681,3.681,3.681,3.668,3.642,3.642,3.604,3.579,3.579,3.554,3.529,3.529,3.505,3.482,3.482,3.458,3.447,3.435,3.435,3.424,3.424,3.424,3.424,3.447,3.47,3.47,3.47,3.493,3.517,3.517,3.529,3.554,3.554,3.566,3.591,3.579,3.579,3.579,3.579,3.566,3.566,3.566,3.554,3.554,3.554,3.542,3.529,3.529,3.529,3.517,3.517,3.517,3.505,3.493,3.493,3.493,3.482,3.482,3.482,3.482,3.482,3.482,3.482,3.482,3.505,3.505,3.517,0,0,0,0,0,0,0,0,0,0,0,0,0,0,0,0,0,0,0,0,0,0,0,0,0,0,0,0,0,0,0,0,0,0,0,0,0,0,0,0,0,0,0,0,0,0,0.998,0.998,0.998,0,0,0.991,0.988,0.988,0.984,0.98,0.98,0.975,0.973,0.973,0.97,0.966,0.966,0.963,0.96,0.96,0.958,0.955,0.955,0.955,0.955,0.955,0.955,0.954,0.954,0.954,0.954,0,0,0,0,0,0,0,0.974,0.974,0.974,0.973,0.973,0.973,0.972,0.97,0.97,0.969,0.968,0.968,0.968,0.967,0.967,0.966,0.965,0.965,0.965,0.965,0.965,0.965,0.965,0.967,0.969,0.969,0.971,0.972,0.972,0.974,0.976,0.978,0.978,0.978,0.978,0.977,0.975,0.975,0.973,0.97,0.97,0.965,0.963,0.963,0.959,0.955,0.955,0.952,0.949,0.948,0.947,0.946,0.945,0.945,0.944,0.943,0.943,0.942,0.941,0.941,0.941,0.939,0.939,0.936,0.935,0.935,0.934,0.931,0.93,0.93,0.929,0.928,0.928,0.928,0.928,0.928,0.927,0.927,0.927,0.926,0.926,0.926,0.925,0.924,0.924,0.924,0.924,0.924,0.924,0.924,0.924,0.924,0.924,0.924,0.924,0.925,0.925,0.925,0.925,0.923,0.918,0.918,0.918,0,0,0,0,0,0,0,0,0,0,0,0.977,0.966,0.966,0.96,0.96,0,0.951,0.948,0.948,0.947,0.945,0.945,0.944,0.944,0.944,0.942,0.942,0.943,0.943,0.942,0.942,0.941,0.941,0.941,0.941,0.941,0.941,0.941,0.941,0.941,0.941,0.94,0.94,0.94,0.94,0.938,0.936,0.936,0.935,0.934,0.934,0.932,0.929,0.929,0.926,0.923,0.923,0.92,0.919,0.919,0.918,0.918,0.918,0.917,0.917,0.917,0.918,0.918,0.919,0.919,0.919,0.92,0.921,0.921,0.923,0.923,0.924,0.924,0.923,0.923,0.922,0.922,0.922,0.922,0.922,0.926,0.926,0.926,0.928,0.929,0.929,0.931,0.937,0.942,0.942,0.948,0.954,0.954,0.985,0,0,0,0,0,0,0,0,0,0,0,0,0,1.065,1.065,1.065,1.067,1.068,1.068,1.068,1.068,1.072,1.072,0,0,0,0,0,1.022,1.022,1.014,1.009,1.009,1.005,1.003,1.003,1.002,1.002,1.002,1.002,0,0,0,0,0,0,0,0,0,0,0,0,0,0,1.324,1.324,1.325,1.325,1.33,1.33,1.33,1.332,1.334,1.334,1.336,1.336,1.336,1.336,1.334,1.334,1.334,1.332,1.332,1.33,1.329,1.329,1.329,1.327,1.327,1.327,1.327,0,0,0,0,0,0,0,0,0,0,0,0,0,0,0,0,0,0,0,0,0,0,0,0,0,0,0,0,0,0,0,0,0,0,0,0,0,0,0
0.871,0.873,0.873,0.873,0.873,0.873,0.874,0.873,0.873,0.873,0.871,0.871,0.87,0.869,0.869,0.867,0.866,0.866,0.865,0.865,0.865,0.864,0.862,0.862,0.857,0.851,0.851,0.851,0,0,0.83,0.822,0.822,0.816,0.814,0.814,0.812,0.81,0.81,0.808,0.807,0.807,0.806,0.804,0.804,0.802,0.8,0.8,0.798,0.796,0.796,0.795,0.794,0.794,0.792,0.791,0.791,0.789,0.788,0.788,0.788,0.788,0.787,0.787,0.786,0.786,0.786,0.786,0.786,0.786,0.786,0.786,0.786,0.786,0.786,0.786,0.786,0.786,0.786,0.786,0.786,0.785,0.785,0.785,0.785,0.784,0.784,0.783,0.783,0.783,0.782,0.781,0.781,0.78,0.779,0.779,0.779,0.777,0.777,0.777,0.776,0.776,0.776,0.775,0.775,0.775,0.774,0.774,0.774,0.773,0.773,0.773,0.773,0.773,0.773,0.773,0.773,0.773,0.773,0.773,0.772,0.772,0.772,0.772,0.772,0.771,0.77,0.769,0.769,0.767,0.766,0.766,0.764,0.764,0.764,0.762,0.761,0.761,0.76,0.76,0.76,0.759,0.758,0.758,0.758,0.757,0.756,0.756,0.755,0.755,0.755,0.755,0.755,0.756,0.756,0.756,4.986,4.986,0,0,4.209,4.209,4.028,4.028,3.905,3.876,3.876,3.861,3.832,3.804,3.804,3.776,3.762,3.762,3.735,3.721,3.721,3.721,3.721,3.721,3.708,3.708,3.708,3.708,3.708,3.694,3.694,3.668,3.642,3.642,3.604,3.579,3.579,3.554,3.529,3.529,3.505,3.482,3.482,3.458,3.447,3.435,3.435,3.424,3.424,3.424,3.424,3.447,3.47,3.47,3.47,3.493,3.517,3.517,3.529,3.554,3.554,3.566,3.591,3.579,3.579,3.579,3.579,3.566,3.566,3.566,3.554,3.554,3.554,3.542,3.529,3.529,3.529,3.517,3.517,3.517,3.505,3.493,3.493,3.493,3.482,3.482,3.482,3.482,3.482,3.482,3.482,3.482,3.505,3.505,3.517,0,0,0,0,0,0,0,0,0,0,0,0,0,0,0,0,0,0,0,0,0,0,0,0,0,0,0,0,0,0,0,0,0,0,0,0,0,0,0,0,0,0,0,0,0,0,0,0,0,0,0,0,0,0,0,0.98,0.98,0.976,0.974,0.974,0.97,0.967,0.967,0.963,0.96,0.96,0.958,0.955,0.955,0.955,0.955,0.955,0.955,0.954,0.954,0.954,0.954,0,0,0,0,0,0,0,0.974,0.974,0.974,0.973,0.973,0.973,0.972,0.97,0.97,0.969,0.968,0.968,0.968,0.968,0.968,0.968,0.967,0.967,0.967,0.967,0.967,0.969,0.969,0.971,0.973,0.973,0.974,0.975,0.975,0.977,0.979,0.98,0.98,0.98,0.98,0.978,0.977,0.977,0.974,0.971,0.971,0.967,0.963,0.963,0.959,0.955,0.955,0.952,0.949,0.948,0.948,0.947,0.946,0.946,0.946,0.945,0.945,0.944,0.944,0.944,0.943,0.941,0.941,0.94,0.939,0.937,0.937,0.935,0.934,0.934,0.933,0.931,0.931,0.93,0.93,0.931,0.93,0.929,0.929,0.929,0.928,0.927,0.927,0.927,0.927,0.927,0.926,0.925,0.925,0.925,0.926,0.926,0.926,0.926,0.926,0.927,0.927,0.927,0.927,0.924,0.924,0,0,0,0,0,0,0,0,0,0,0,0,0,0,0,0,0,0,0,0.951,0.948,0.948,0.947,0.946,0.946,0.944,0.944,0.944,0.943,0.943,0.944,0.944,0.943,0.942,0.942,0.941,0.941,0.942,0.942,0.942,0.942,0.942,0.941,0.941,0.941,0.941,0.941,0.941,0.938,0.938,0.938,0.936,0.935,0.935,0.932,0.929,0.929,0.926,0.923,0.923,0.92,0.919,0.919,0.918,0.918,0.918,0.917,0.917,0.917,0.918,0.918,0.919,0.919,0.919,0.92,0.921,0.921,0.923,0.923,0.924,0.924,0.923,0.923,0.922,0.922,0.922,0.922,0.922,0.926,0.926,0.926,0.928,0.929,0.929,0.931,0.937,0.942,0.942,0.948,0.954,0.954,0,0,0,0,0,0,0,0,0,0,0,0,0,0,0,0,0,0,0,1.071,1.071,1.072,1.072,1.072,0,0,0,0,0,1.029,1.029,1.022,1.017,1.017,1.012,1.01,1.01,1.008,1.006,1.006,1.006,0,0,0,0,0,0,0,0,0,0,0,0,0,0,0,1.327,1.327,1.327,1.33,1.332,1.332,1.334,1.334,1.334,1.336,1.336,1.336,1.336,1.334,1.334,1.334,1.332,1.332,1.332,1.329,1.329,1.329,1.327,1.327,1.327,1.327,0,0,0,0,0,0,0,0,0,0,0,0,0,0,0,0,0,0,0,0,0,0,0,0,0,0,0,0,0,0,0,0,0,0,0,0,0,0,0
0.871,0.873,0.873,0.873,0.873,0.873,0.873,0.873,0.873,0.872,0.871,0.871,0.87,0.869,0.869,0.867,0.866,0.866,0.865,0.865,0.865,0.864,0.862,0.862,0.857,0.851,0.851,0.851,0,0,0.83,0.822,0.822,0.816,0.814,0.814,0.812,0.81,0.81,0.808,0.807,0.807,0.806,0.804,0.804,0.802,0.8,0.8,0.798,0.796,0.796,0.795,0.794,0.794,0.792,0.791,0.791,0.789,0.788,0.788,0.788,0.788,0.787,0.787,0.786,0.786,0.786,0.786,0.786,0.786,0.786,0.786,0.786,0.786,0.786,0.786,0.786,0.786,0.786,0.786,0.785,0.785,0.785,0.785,0.784,0.784,0.784,0.783,0.783,0.783,0.782,0.781,0.781,0.78,0.779,0.779,0.778,0.777,0.777,0.777,0.776,0.775,0.775,0.775,0.774,0.774,0.774,0.774,0.774,0.773,0.773,0.773,0.773,0.773,0.773,0.773,0.773,0.773,0.773,0.772,0.772,0.772,0.772,0.772,0.772,0.77,0.77,0.769,0.769,0.767,0.766,0.766,0.764,0.764,0.764,0.762,0.761,0.761,0.76,0.76,0.76,0.759,0.758,0.758,0.758,0.757,0.756,0.756,0.755,0.755,0.755,0.755,0.755,0.755,0.755,0.756,4.986,4.986,0,0,4.209,4.209,4.028,4.028,3.905,3.876,3.876,3.861,3.832,3.804,3.804,3.776,3.762,3.762,3.735,3.721,3.721,3.721,3.721,3.721,3.708,3.708,3.708,3.708,3.708,3.694,3.694,3.668,3.642,3.642,3.604,3.566,3.566,3.542,3.505,3.505,3.493,3.458,3.458,3.435,3.424,3.424,3.401,3.39,3.379,3.379,3.379,3.39,3.412,3.412,3.412,3.424,3.424,3.447,3.47,3.493,3.493,3.517,3.529,3.529,3.529,3.529,3.529,3.529,3.529,3.529,3.529,3.529,3.529,3.517,3.517,3.517,3.517,3.517,3.505,3.505,3.493,3.482,3.482,3.482,3.482,3.482,3.47,3.47,3.482,3.47,3.47,3.482,3.493,3.493,3.505,3.517,3.517,3.529,3.554,3.554,3.566,0,0,0,0,0,0,0,0,0,0,0,0,0,0,0,0,0,0,0,0,0,0,0,0,0,0,0,0,0,0,0,0,0,0,0,0,0,0,0,0,0,0,0,0,0,0,0,0,0,0.98,0.98,0.976,0.974,0.974,0.969,0.966,0.966,0.963,0.96,0.96,0.958,0.955,0.955,0.955,0.955,0.955,0.955,0.954,0.954,0.954,0.954,0,0,0,0,0,0,0.973,0.973,0.973,0.972,0.972,0.972,0.972,0.972,0.97,0.97,0.969,0.968,0.968,0.968,0.968,0.968,0.968,0.967,0.967,0.967,0.967,0.967,0.969,0.969,0.971,0.973,0.973,0.974,0.975,0.975,0.977,0.979,0.98,0.98,0.98,0.98,0.978,0.977,0.977,0.974,0.971,0.971,0.967,0.963,0.963,0.959,0.955,0.955,0.952,0.949,0.948,0.948,0.947,0.946,0.946,0.946,0.945,0.945,0.944,0.944,0.944,0.943,0.941,0.941,0.94,0.939,0.937,0.937,0.935,0.934,0.934,0.933,0.931,0.931,0.93,0.93,0.931,0.93,0.929,0.929,0.929,0.928,0.927,0.927,0.927,0.927,0.927,0.926,0.925,0.925,0.925,0.926,0.926,0.926,0.926,0.926,0.927,0.927,0.927,0.927,0.924,0.924,0,0,0,0,0,0,0,0,0,0,0,0,0,0,0,0,0,0.955,0.955,0.951,0.948,0.948,0.947,0.946,0.946,0.944,0.944,0.944,0.943,0.943,0.944,0.944,0.943,0.942,0.942,0.941,0.941,0.942,0.942,0.942,0.942,0.942,0.941,0.941,0.941,0.941,0.941,0.941,0.938,0.938,0.938,0.936,0.935,0.935,0.932,0.929,0.929,0.925,0.922,0.922,0.919,0.918,0.918,0.916,0.915,0.915,0.914,0.914,0.914,0.915,0.915,0.915,0.918,0.918,0.918,0.918,0.918,0.919,0.92,0.92,0.92,0.919,0.919,0.918,0.918,0.918,0.918,0.918,0.918,0.918,0.919,0.921,0.922,0.922,0.924,0.926,0.926,0.929,0.933,0.935,0.935,0.936,0.936,0.936,0,0,0,0,0,0,0,0,0,0,0,0,0,0,1.074,1.074,1.071,1.071,1.072,1.072,1.072,1.072,0,0,0,0,1.029,1.029,1.022,1.017,1.017,1.012,1.01,1.01,1.008,1.006,1.006,1.006,1.01,0,0,0,0,0,0,0,0,0,0,0,0,0,0,1.327,1.327,1.327,1.33,1.332,1.332,1.334,1.334,1.334,1.336,1.336,1.336,1.336,1.334,1.334,1.332,1.33,1.33,1.33,1.329,1.329,1.327,1.327,1.327,1.327,1.327,0,0,0,0,0,0,0,0,0,0,0,0,0,0,0,0,0,0,0,0,0,0,0,0,0,0,0,0,0,0,0,0,0,0,0,0,0,0,0
0.871,0.871,0.871,0.872,0.872,0.872,0.872,0.872,0.872,0.871,0.87,0.87,0.87,0.868,0.868,0.867,0.867,0.867,0.866,0.865,0.865,0.865,0.863,0.863,0.858,0.852,0.852,0.852,0,0,0.833,0.826,0.826,0.819,0.816,0.816,0.814,0.813,0.813,0.811,0.809,0.809,0.807,0.806,0.806,0.804,0.802,0.802,0.8,0.797,0.797,0.796,0.795,0.795,0.793,0.791,0.791,0.79,0.789,0.789,0.789,0.789,0.789,0.789,0.788,0.788,0.788,0.787,0.787,0.788,0.787,0.787,0.786,0.786,0.786,0.786,0.786,0.786,0.785,0.785,0.785,0.785,0.785,0.785,0.784,0.784,0.784,0.783,0.783,0.783,0.782,0.782,0.782,0.78,0.779,0.779,0.778,0.777,0.777,0.776,0.776,0.775,0.775,0.775,0.774,0.774,0.774,0.774,0.774,0.773,0.773,0.773,0.773,0.773,0.773,0.773,0.773,0.772,0.772,0.772,0.772,0.772,0.771,0.77,0.77,0.77,0.769,0.769,0.768,0.767,0.765,0.765,0.764,0.764,0.764,0.763,0.762,0.762,0.761,0.76,0.76,0.759,0.759,0.759,0.759,0.758,0.757,0.757,0.755,0.755,0.755,0.755,0.755,0.755,0.755,5.294,5.187,5.187,0,0,4.262,4.262,4.06,4.06,3.905,3.876,3.876,3.861,3.832,3.818,3.818,3.79,3.776,3.776,3.762,3.748,3.748,3.748,3.748,3.748,3.735,3.735,3.721,3.721,3.721,3.708,3.708,3.681,3.642,3.642,3.604,3.566,3.566,3.529,3.493,3.493,3.47,3.447,3.447,3.412,3.401,3.401,3.379,3.356,3.356,3.356,3.356,3.356,3.356,3.356,3.356,3.379,3.379,3.39,3.424,3.447,3.447,3.47,3.493,3.493,3.493,3.493,3.493,3.505,3.505,3.505,3.505,3.505,3.505,3.505,3.505,3.505,3.505,3.505,3.493,3.493,3.482,3.482,3.482,3.482,3.47,3.47,3.47,3.47,3.47,3.47,3.47,3.482,3.493,3.493,3.493,3.505,3.505,3.529,3.554,3.554,3.566,3.566,0,0,0,0,0,0,0,0,0,0,0,0,0,0,0,0,0,0,0,0,0,0,0,0,0,0,0,0,0,0,0,0,0,0,0,0,0,0,0,0,0,0,0,0,0,0,0,0,0,0,0,0,0,0.969,0.966,0.966,0.963,0.96,0.96,0.957,0.956,0.956,0.955,0.955,0.955,0.955,0.955,0.955,0.955,0.955,0,0,0,0,0,0,0.972,0.972,0.972,0.971,0.971,0.971,0.971,0.972,0.971,0.971,0.97,0.969,0.969,0.969,0.97,0.97,0.97,0.97,0.97,0.97,0.97,0.971,0.972,0.972,0.974,0.975,0.975,0.977,0.979,0.98,0.98,0.981,0.983,0.983,0.983,0.983,0.981,0.979,0.979,0.976,0.973,0.973,0.969,0.965,0.965,0.961,0.957,0.956,0.954,0.951,0.949,0.949,0.948,0.947,0.947,0.947,0.946,0.946,0.946,0.946,0.946,0.946,0.944,0.944,0.943,0.941,0.941,0.941,0.939,0.937,0.937,0.935,0.935,0.935,0.934,0.934,0.934,0.933,0.932,0.932,0.931,0.931,0.93,0.93,0.93,0.93,0.93,0.929,0.929,0.929,0.929,0.929,0.929,0.929,0.929,0.929,0.929,0.929,0.929,0.929,0.927,0.927,0,0,0,0,0,0,0,0,0,0,0,0,0,0,0,0,0,0.954,0.954,0.952,0.949,0.949,0.947,0.947,0.947,0.946,0.945,0.945,0.944,0.944,0.944,0.944,0.944,0.943,0.943,0.943,0.942,0.942,0.942,0.942,0.943,0.943,0.942,0.942,0.942,0.941,0.941,0.941,0.94,0.939,0.939,0.937,0.935,0.935,0.932,0.929,0.929,0.925,0.922,0.922,0.919,0.918,0.918,0.916,0.915,0.915,0.914,0.914,0.914,0.915,0.915,0.915,0.916,0.916,0.917,0.917,0.917,0.918,0.918,0.918,0.918,0.916,0.916,0.915,0.915,0.915,0.914,0.914,0.914,0.914,0.914,0.915,0.915,0.915,0.917,0.919,0.919,0.919,0.919,0.919,0.919,0.919,0.916,0.916,0,0,0,0,0,0,0,0,0,0,0,0,0,0,1.074,1.074,1.074,1.074,1.075,1.075,1.072,1.072,0,0,0,0,0,0,1.033,1.023,1.023,1.019,1.017,1.017,1.014,1.012,1.01,1.01,1.01,0,0,0,0,0,0,0,0,0,0,0,0,0,0,1.327,1.327,1.327,1.33,1.332,1.332,1.332,1.336,1.336,1.336,1.336,1.336,1.334,1.332,1.332,1.332,1.33,1.33,1.33,1.329,1.329,1.327,1.327,1.327,1.329,1.329,0,0,0,0,0,0,0,0,0,0,0,0,0,0,0,0,0,0,0,0,0,0,0,0,0,0,0,0,0,0,0,0,0,0,0,0,0,0,0
0.871,0.871,0.871,0.872,0.872,0.872,0.872,0.872,0.872,0.871,0.87,0.87,0.87,0.868,0.868,0.867,0.867,0.867,0.866,0.866,0.866,0.865,0.864,0.864,0.86,0.854,0.854,0.854,0,0,0.836,0.83,0.83,0.822,0.82,0.82,0.818,0.815,0.815,0.814,0.812,0.812,0.809,0.809,0.809,0.806,0.804,0.804,0.801,0.799,0.799,0.797,0.796,0.796,0.794,0.792,0.792,0.791,0.79,0.79,0.79,0.79,0.79,0.79,0.789,0.789,0.789,0.789,0.789,0.789,0.788,0.788,0.787,0.787,0.786,0.786,0.786,0.786,0.785,0.785,0.785,0.785,0.785,0.785,0.784,0.784,0.784,0.783,0.783,0.783,0.782,0.782,0.782,0.78,0.779,0.779,0.778,0.777,0.777,0.776,0.776,0.775,0.775,0.775,0.774,0.774,0.774,0.774,0.774,0.773,0.773,0.773,0.773,0.773,0.773,0.773,0.773,0.772,0.772,0.772,0.772,0.772,0.771,0.77,0.77,0.77,0.769,0.769,0.768,0.767,0.765,0.765,0.764,0.764,0.764,0.763,0.762,0.762,0.761,0.76,0.76,0.76,0.76,0,0.76,0.759,0.757,0.757,0.755,0.755,6.113,6.042,5.971,5.971,5.738,5.294,5.294,5.294,0,0,0,0,4.076,4.076,3.905,3.876,3.876,3.861,3.847,3.818,3.818,3.804,3.79,3.79,3.776,3.776,3.776,3.776,3.776,3.776,3.762,3.748,3.735,3.735,3.735,3.708,3.708,3.681,3.655,3.655,3.604,3.566,3.566,3.529,3.493,3.493,3.47,3.447,3.447,3.412,3.401,3.401,3.379,3.356,3.356,3.356,3.356,3.356,3.356,3.356,3.356,3.379,3.379,3.39,3.424,3.447,3.447,3.47,3.493,3.493,3.493,3.493,3.493,3.505,3.505,3.505,3.505,3.505,3.505,3.505,3.505,3.505,3.505,3.505,3.493,3.493,3.482,3.482,3.482,3.482,3.47,3.47,3.47,3.47,3.47,3.47,3.482,3.482,3.493,3.493,3.493,3.505,3.505,3.529,3.542,3.542,3.566,3.566,0,0,0,0,0,0,0,0,0,0,0,0,0,0,0,0,0,0,0,0,0,0,0,0,0,0,0,0,0,0,0,0,0,0,0,0,0,0,0,0,0,0,0,0,0,0,0,0,0,0,0,0,0,0,0.966,0.966,0.963,0.96,0.96,0.957,0.956,0.956,0.955,0.955,0.955,0.955,0.956,0.957,0.957,0.957,0,0,0,0,0,0,0.972,0.972,0.972,0.971,0.971,0.971,0.971,0.972,0.971,0.971,0.97,0.97,0.97,0.97,0.971,0.972,0.972,0.972,0.972,0.972,0.972,0.973,0.974,0.974,0.976,0.979,0.979,0.98,0.981,0.983,0.983,0.984,0.985,0.985,0.985,0.985,0.984,0.981,0.981,0.979,0.975,0.975,0.972,0.969,0.969,0.963,0.96,0.956,0.956,0.954,0.952,0.952,0.95,0.949,0.949,0.948,0.948,0.948,0.948,0.948,0.948,0.947,0.946,0.945,0.945,0.944,0.942,0.942,0.941,0.94,0.94,0.938,0.937,0.937,0.937,0.936,0.936,0.935,0.935,0.934,0.934,0.934,0.934,0.934,0.933,0.933,0.934,0.933,0.933,0.933,0.933,0.933,0.933,0.934,0.934,0.934,0.934,0.933,0.933,0.933,0.933,0,0,0,0,0,0,0,0,0,0,0,0,0,0,0,0,0,0,0.954,0.954,0.952,0.95,0.95,0.948,0.947,0.947,0.946,0.945,0.945,0.945,0.945,0.945,0.945,0.944,0.943,0.943,0.943,0.943,0.943,0.942,0.942,0.943,0.943,0.943,0.943,0.943,0.943,0.943,0.943,0.941,0.941,0.941,0.94,0.938,0.938,0.935,0.932,0.932,0.928,0.924,0.924,0.92,0.918,0.918,0.917,0.915,0.915,0.915,0.915,0.915,0.915,0.915,0.915,0.916,0.916,0.917,0.917,0.917,0.918,0.918,0.918,0.918,0.916,0.916,0.915,0.915,0.915,0.914,0.914,0.914,0.914,0.914,0.915,0.915,0.915,0.917,0.919,0.919,0.919,0.919,0.919,0.919,0.919,0.916,0.916,0,0,0,0,0,0,0,0,0,0,0,0,0,0,1.078,1.078,1.079,1.079,1.079,1.081,1.075,1.072,1.072,1.061,1.061,0,0,1.041,1.033,1.03,1.03,1.025,1.022,1.019,1.019,1.016,1.014,1.014,1.014,0,0,0,0,0,0,0,0,0,0,0,0,0,0,0,0,1.332,1.332,1.334,1.332,1.332,1.336,1.336,1.336,1.336,1.336,1.334,1.332,1.332,1.33,1.33,1.33,1.33,1.329,1.329,1.329,1.327,1.327,1.329,1.329,0,0,0,0,0,0,0,0,0,0,0,0,0,0,0,0,0,0,0,0,0,0,0,0,0,0,0,0,0,0,0,0,0,0,0,0,0,0,0
0.87,0.87,0.87,0.87,0.87,0.87,0.87,0.871,0.87,0.87,0.87,0.87,0.869,0.868,0.868,0.867,0.867,0.867,0.866,0.866,0.866,0.865,0.864,0.864,0.86,0.854,0.854,0.854,0.845,0.845,0.836,0.83,0.83,0.822,0.82,0.82,0.818,0.815,0.815,0.814,0.812,0.812,0.809,0.809,0.809,0.806,0.804,0.804,0.801,0.799,0.799,0.797,0.796,0.796,0.794,0.792,0.792,0.791,0.79,0.79,0.79,0.79,0.79,0.79,0.789,0.789,0.789,0.789,0.789,0.789,0.788,0.788,0.787,0.787,0.786,0.786,0.786,0.786,0.785,0.785,0.785,0.785,0.785,0.785,0.784,0.784,0.784,0.783,0.783,0.783,0.782,0.782,0.782,0.78,0.779,0.779,0.778,0.777,0.777,0.776,0.776,0.775,0.775,0.774,0.774,0.774,0.774,0.774,0.774,0.773,0.773,0.773,0.773,0.773,0.773,0.773,0.772,0.772,0.772,0.772,0.772,0.772,0.771,0.77,0.77,0.769,0.769,0.769,0.767,0.766,0.765,0.765,0.764,0.763,0.763,0.762,0.762,0.762,0.761,0.76,0.76,0.76,0.76,0,0.76,0.759,0.757,0.757,0.755,0.754,0.754,0.754,5.971,5.971,5.738,5.294,5.294,5.294,0,0,0,0,4.076,4.076,3.905,3.876,3.876,3.861,3.847,3.818,3.818,3.804,3.79,3.79,3.776,3.776,3.776,3.776,3.776,3.776,3.762,3.748,3.735,3.735,3.735,3.708,3.708,3.681,3.655,3.655,3.604,3.566,3.566,3.517,3.482,3.482,3.458,3.424,3.424,3.39,3.367,3.367,3.356,3.335,3.324,3.324,3.324,3.324,3.324,3.324,3.324,3.335,3.335,3.356,3.379,3.401,3.401,3.412,3.435,3.435,3.447,3.458,3.458,3.47,3.482,3.482,3.482,3.482,3.482,3.482,3.482,3.493,3.493,3.493,3.493,3.493,3.482,3.482,3.482,3.47,3.47,3.47,3.47,3.47,3.47,3.47,3.47,3.482,3.493,3.493,3.493,3.505,3.505,3.529,3.542,3.542,3.566,3.566,0,0,0,0,0,0,0,0,0,0,0,0,0,0,0,0,0,0,0,0,0,0,0,0,0,0,0,0,0,0,0,0,0,0,0,0,0,0,0,0,0,0,0,0,0,0,0,0,0,0,0,0,0,0,0.966,0.966,0.962,0.96,0.96,0.957,0.956,0.956,0.955,0.955,0.955,0.955,0.956,0.957,0.957,0.957,0.963,0,0,0,0,0,0.972,0.972,0.972,0.971,0.971,0.971,0.971,0.972,0.971,0.971,0.97,0.97,0.97,0.97,0.971,0.972,0.972,0.972,0.972,0.972,0.972,0.973,0.974,0.974,0.976,0.979,0.979,0.98,0.981,0.983,0.983,0.984,0.985,0.985,0.985,0.985,0.984,0.981,0.981,0.979,0.975,0.974,0.972,0.969,0.967,0.963,0.96,0.956,0.956,0.954,0.952,0.952,0.95,0.949,0.949,0.948,0.948,0.948,0.948,0.948,0.948,0.947,0.946,0.945,0.945,0.944,0.942,0.942,0.941,0.94,0.94,0.938,0.937,0.937,0.937,0.936,0.936,0.935,0.935,0.934,0.934,0.934,0.934,0.934,0.933,0.933,0.934,0.933,0.933,0.933,0.933,0.933,0.933,0.934,0.934,0.934,0.934,0.933,0.933,0.933,0.933,0.926,0.926,0.926,0,0,0,0,0,0,0,0,0,0,0,0,0,0,0,0.954,0.95,0.949,0.948,0.948,0.947,0.947,0.947,0.946,0.945,0.945,0.945,0.945,0.945,0.945,0.944,0.943,0.943,0.943,0.943,0.943,0.942,0.942,0.943,0.943,0.943,0.943,0.943,0.943,0.943,0.943,0.941,0.941,0.941,0.94,0.938,0.938,0.935,0.932,0.932,0.928,0.924,0.924,0.92,0.918,0.918,0.917,0.915,0.915,0.915,0.915,0.915,0.915,0.915,0.915,0.916,0.916,0.916,0.917,0.917,0.917,0.917,0.916,0.916,0.915,0.915,0.915,0.915,0.915,0.911,0.91,0.91,0.909,0.909,0.91,0.91,0.91,0.91,0.911,0.91,0.909,0.909,0.907,0.904,0.904,0.901,0.901,0,0.889,0.885,0.885,0.883,0.883,0,0,0,0,0,0,0,0,0,0,0,0,1.085,1.085,1.08,1.072,1.072,1.061,1.061,0,0,1.041,1.041,1.037,1.032,1.032,1.032,1.025,1.025,1.025,0,0,0,0,0,0,0,0,0,0,0,0,0,0,0,0,0,0,0,0,1.334,1.334,1.334,1.334,1.336,1.336,1.336,1.336,1.336,1.334,1.332,1.332,1.33,1.33,1.33,1.33,1.329,1.329,1.329,1.327,1.327,1.329,1.329,0,0,0,0,0,0,0,0,0,0,0,0,0,0,0,0,0,0,0,0,0,0,0,0,0,0,0,0,0,0,0,0,0,0,0,0,0,0,0
0.868,0.868,0.868,0.868,0.869,0.869,0.869,0.869,0.868,0.868,0.868,0.868,0.867,0.867,0.867,0.867,0.867,0.867,0.867,0.867,0.867,0.866,0.865,0.865,0.861,0.857,0.857,0.852,0.845,0.845,0.839,0.833,0.833,0.827,0.824,0.824,0.822,0.82,0.82,0.818,0.816,0.816,0.813,0.811,0.811,0.808,0.806,0.806,0.802,0.8,0.8,0.798,0.796,0.796,0.794,0.793,0.793,0.792,0.791,0.791,0.791,0.791,0.791,0.791,0.791,0.791,0.791,0.791,0.79,0.79,0.789,0.789,0.788,0.788,0.787,0.786,0.786,0.786,0.786,0.786,0.785,0.785,0.785,0.785,0.784,0.784,0.784,0.784,0.783,0.783,0.782,0.781,0.781,0.78,0.779,0.779,0.778,0.777,0.777,0.776,0.776,0.775,0.775,0.774,0.774,0.774,0.774,0.774,0.774,0.773,0.773,0.773,0.773,0.773,0.773,0.773,0.772,0.772,0.772,0.772,0.771,0.771,0.77,0.769,0.769,0.769,0.768,0.768,0.766,0.765,0.764,0.764,0.763,0.762,0.762,0.762,0.762,0.762,0.761,0.76,0.76,0.76,0.76,0.76,0.76,0.759,0.758,0.758,0.758,0.754,0.754,0.754,5.803,5.803,5.612,5.349,5.214,5.214,0,0,0,0,4.076,4.076,3.905,3.876,3.876,3.876,3.861,3.832,3.832,3.818,3.804,3.804,3.79,3.79,3.79,3.79,3.79,3.79,3.776,3.762,3.748,3.748,3.735,3.708,3.708,3.681,3.642,3.642,3.591,3.554,3.554,3.505,3.47,3.47,3.435,3.401,3.401,3.379,3.356,3.356,3.345,3.324,3.313,3.313,3.313,3.302,3.302,3.302,3.302,3.313,3.313,3.324,3.345,3.345,3.367,3.39,3.412,3.412,3.412,3.435,3.435,3.447,3.458,3.47,3.47,3.47,3.47,3.47,3.47,3.482,3.482,3.482,3.482,3.482,3.47,3.47,3.47,3.47,3.47,3.47,3.458,3.458,3.47,3.47,3.47,3.482,3.493,3.493,3.493,3.505,3.505,3.517,3.529,3.529,3.554,3.566,0,0,0,0,0,0,0,0,0,0,0,0,0,0,0,0,0,0,0,0,0,0,0,0,0,0,0,0,0,0,0,0,0,0,0,0,0,0,0,0,0,0,0,0,0,0,0,0,0,0,0,0,0,0,0,0,0.962,0.96,0.96,0.957,0.956,0.956,0.956,0.956,0.958,0.958,0.958,0.961,0.969,0.963,0.963,0.974,0,0.977,0.977,0.978,0.974,0.974,0.974,0.973,0.973,0.973,0.973,0.973,0.972,0.972,0.972,0.972,0.972,0.972,0.973,0.974,0.974,0.974,0.974,0.974,0.974,0.975,0.977,0.977,0.98,0.981,0.981,0.983,0.984,0.986,0.986,0.987,0.988,0.988,0.987,0.987,0.986,0.984,0.981,0.981,0.978,0.974,0.974,0.971,0.967,0.967,0.963,0.96,0.96,0.957,0.955,0.955,0.954,0.953,0.953,0.952,0.95,0.95,0.95,0.949,0.949,0.948,0.947,0.947,0.947,0.946,0.945,0.945,0.944,0.942,0.942,0.941,0.941,0.941,0.941,0.94,0.94,0.939,0.938,0.937,0.937,0.937,0.937,0.938,0.938,0.937,0.937,0.937,0.937,0.937,0.937,0.937,0.937,0.938,0.938,0.938,0.938,0.938,0.938,0.938,0.938,0.926,0.926,0.926,0,0,0,0,0,0,0,0,0,0,0,0,0,0.941,0.941,0.949,0.948,0.948,0.948,0.948,0.947,0.947,0.947,0.946,0.946,0.946,0.945,0.945,0.945,0.945,0.944,0.943,0.943,0.943,0.943,0.943,0.943,0.943,0.943,0.943,0.944,0.944,0.944,0.944,0.945,0.945,0.944,0.943,0.943,0.943,0.941,0.941,0.94,0.936,0.936,0.932,0.927,0.927,0.924,0.921,0.921,0.919,0.916,0.916,0.915,0.915,0.915,0.915,0.915,0.915,0.915,0.915,0.915,0.915,0.915,0.915,0.915,0.915,0.914,0.911,0.911,0.91,0.908,0.908,0.907,0.906,0.906,0.904,0.903,0.903,0.903,0.903,0.904,0.903,0.903,0.901,0.901,0.899,0.897,0.897,0.895,0.892,0.892,0.888,0.885,0.885,0.883,0.88,0.88,0.88,0,0,0,0,0,0,0,0,0,0,1.085,1.085,1.08,1.072,1.072,1.061,1.059,1.059,1.052,1.041,1.041,1.037,1.032,1.032,1.032,1.025,1.025,1.025,1.028,0,0,0,0,0,0,0,0,0,0,0,0,0,0,0,0,0,0,0,1.334,1.334,1.334,1.334,1.334,1.334,1.334,1.334,1.334,1.332,1.332,1.332,1.33,1.33,1.33,1.33,1.329,1.329,1.327,1.327,1.327,1.327,1.327,0,0,0,0,0,0,0,0,0,0,0,0,0,0,0,0,0,0,0,0,0,0,0,0,0,0,0,0,0,0,0,0,0,0,0,0,0,0,0
0.868,0.868,0.868,0.868,0.869,0.869,0.869,0.869,0.868,0.868,0.868,0.868,0.867,0.867,0.867,0.867,0.867,0.867,0.867,0.867,0.867,0.866,0.865,0.865,0.861,0.857,0.857,0.852,0.848,0.848,0.843,0.837,0.837,0.832,0.829,0.829,0.826,0.824,0.824,0.822,0.819,0.819,0.816,0.814,0.814,0.811,0.807,0.807,0.804,0.801,0.801,0.799,0.797,0.797,0.795,0.794,0.793,0.793,0.792,0.792,0.793,0.793,0.793,0.793,0.792,0.792,0.792,0.792,0.792,0.791,0.791,0.791,0.789,0.789,0.788,0.788,0.788,0.787,0.786,0.786,0.786,0.785,0.785,0.785,0.785,0.784,0.784,0.784,0.783,0.783,0.782,0.781,0.781,0.78,0.779,0.779,0.778,0.777,0.777,0.776,0.776,0.775,0.775,0.774,0.774,0.774,0.774,0.774,0.774,0.773,0.773,0.773,0.773,0.773,0.773,0.773,0.772,0.772,0.772,0.772,0.771,0.771,0.77,0.769,0.769,0.769,0.768,0.768,0.766,0.765,0.764,0.764,0.763,0.762,0.762,0.762,0.762,0.762,0.761,0.761,0.761,0.76,0.76,0.76,0.76,0.76,0.76,6.006,5.971,5.836,5.836,5.738,5.582,5.582,5.377,5.377,5.035,5.035,0,0,0,0,4.092,4.092,3.92,3.89,3.876,3.876,3.861,3.832,3.832,3.818,3.804,3.804,3.79,3.79,3.79,3.79,3.79,3.79,3.776,3.762,3.735,3.735,3.708,3.694,3.694,3.668,3.629,3.629,3.579,3.554,3.554,3.505,3.458,3.458,3.435,3.39,3.39,3.379,3.356,3.356,3.345,3.324,3.313,3.313,3.313,3.302,3.302,3.292,3.292,3.302,3.302,3.313,3.335,3.335,3.356,3.367,3.39,3.39,3.401,3.412,3.412,3.424,3.447,3.447,3.447,3.458,3.458,3.458,3.458,3.47,3.47,3.47,3.47,3.47,3.47,3.47,3.47,3.47,3.47,3.47,3.458,3.458,3.458,3.458,3.47,3.47,3.482,3.482,3.493,3.493,3.493,3.505,3.529,3.529,3.554,0,0,0,0,0,0,0,0,0,0,0,0,0,0,0,0,0,0,0,0,0,0,0,0,0,0,0,0,0,0,0,0,0,0,0,0,0,0,0,0,0,0,0,0,0,0,0,0,0,0,0,0,0,0,0,0,0,0,0,0,0.958,0.958,0,0.96,0.96,0,0,0.974,0.969,0.969,0.969,0.972,0.974,0.979,0.977,0.977,0.978,0.976,0.975,0.975,0.974,0.974,0.974,0.974,0.974,0.974,0.974,0.974,0.974,0.974,0.974,0.974,0.976,0.976,0.976,0.977,0.978,0.978,0.979,0.981,0.981,0.983,0.985,0.986,0.986,0.987,0.989,0.989,0.989,0.989,0.989,0.989,0.989,0.987,0.986,0.983,0.983,0.981,0.977,0.977,0.974,0.971,0.971,0.966,0.963,0.963,0.961,0.959,0.959,0.956,0.955,0.955,0.954,0.953,0.953,0.952,0.951,0.951,0.95,0.949,0.948,0.948,0.947,0.947,0.947,0.946,0.945,0.945,0.944,0.943,0.943,0.942,0.942,0.942,0.941,0.941,0.941,0.941,0.941,0.941,0.941,0.941,0.941,0.941,0.941,0.941,0.941,0.941,0.941,0.942,0.942,0.942,0.942,0.942,0.942,0.942,0.942,0.942,0,0,0,0,0,0,0,0,0,0,0,0,0,0,0.955,0.955,0.941,0.941,0.949,0.948,0.948,0.948,0.948,0.948,0.947,0.947,0.947,0.947,0.947,0.946,0.945,0.945,0.945,0.944,0.943,0.943,0.943,0.943,0.944,0.944,0.944,0.944,0.944,0.945,0.945,0.945,0.945,0.946,0.947,0.946,0.946,0.946,0.945,0.944,0.944,0.942,0.94,0.94,0.935,0.931,0.931,0.928,0.925,0.925,0.922,0.919,0.919,0.917,0.916,0.916,0.916,0.916,0.915,0.915,0.915,0.915,0.915,0.915,0.915,0.915,0.912,0.911,0.911,0.909,0.907,0.904,0.904,0.902,0.901,0.901,0.899,0.898,0.898,0.897,0.897,0.897,0.897,0.896,0.896,0.895,0.894,0.894,0.892,0.892,0.889,0.889,0.887,0.885,0.885,0.883,0.88,0.88,0.88,0.881,0,0,0,0,0,0,0,0,0,0,0,1.082,1.077,1.077,1.067,1.059,1.059,1.052,1.047,1.047,1.045,1.04,1.04,1.04,1.042,1.042,1.028,1.028,0,0,0,0,0,0,0,0,0,0,0,0,0,0,0,0,0,0,0,0,0,0,1.334,1.334,1.334,1.334,1.332,1.332,1.33,1.33,1.332,1.329,1.329,1.33,1.329,1.327,1.327,1.327,1.327,1.327,1.327,1.327,0,0,0,0,0,0,0,0,0,0,0,0,0,0,0,0,0,0,0,0,0,0,0,0,0,0,0,0,0,0,0,0,0,0,0,0,0,0,0
0.865,0.865,0.865,0.865,0.866,0.866,0.867,0.867,0.867,0.866,0.866,0.866,0.866,0.866,0.866,0.866,0.866,0.866,0.866,0.866,0.866,0.866,0.865,0.862,0.861,0.857,0.857,0.852,0.848,0.848,0.843,0.837,0.837,0.832,0.829,0.829,0.826,0.824,0.824,0.822,0.819,0.819,0.816,0.814,0.814,0.811,0.807,0.807,0.804,0.801,0.801,0.799,0.797,0.797,0.795,0.794,0.793,0.793,0.792,0.792,0.793,0.793,0.793,0.793,0.792,0.792,0.792,0.792,0.792,0.791,0.791,0.791,0.789,0.789,0.788,0.788,0.788,0.787,0.786,0.786,0.786,0.785,0.785,0.785,0.785,0.784,0.784,0.783,0.783,0.783,0.782,0.781,0.781,0.78,0.779,0.779,0.778,0.777,0.777,0.776,0.776,0.775,0.775,0.774,0.774,0.774,0.774,0.774,0.774,0.773,0.773,0.773,0.773,0.773,0.772,0.772,0.772,0.772,0.772,0.771,0.77,0.77,0.77,0.769,0.769,0.768,0.767,0.767,0.766,0.765,0.764,0.764,0.763,0.762,0.762,0.762,0.762,0.762,0.761,0.761,0.761,0.76,0.76,0.76,0.76,0.76,0.76,6.006,5.971,5.836,5.836,5.738,5.582,5.582,5.377,5.377,5.035,5.035,0,0,0,0,4.092,4.092,3.935,3.905,3.876,3.876,3.861,3.832,3.832,3.818,3.804,3.804,3.79,3.79,3.79,3.79,3.79,3.79,3.776,3.762,3.735,3.735,3.708,3.694,3.694,3.668,3.629,3.629,3.579,3.579,0,0,3.458,3.458,3.435,3.39,3.39,3.379,3.356,3.356,3.345,3.324,3.313,3.313,3.313,3.302,3.302,3.292,3.292,3.302,3.302,3.313,3.335,3.335,3.356,3.367,3.39,3.39,3.401,3.412,3.412,3.424,3.447,3.447,3.447,3.458,3.458,3.458,3.458,3.47,3.47,3.47,3.47,3.47,3.47,3.47,3.47,3.47,3.47,3.47,3.458,3.458,3.458,3.458,3.47,3.47,3.482,3.482,3.493,3.493,3.493,3.505,0,0,0,0,0,0,0,0,0,0,0,0,0,0,0,0,0,0,0,0,0,0,0,0,0,0,0,0,0,0,0,0,0,0,0,0,0,0,0,0,0,0,0,0,0,0,0,0,0,0,0,0,0,0,0,0,0,0,0,0,0,0,0,0,0,0,0,0,0,0,0.974,0.974,0.976,0.976,0.976,0.978,0.979,0.979,0.978,0.978,0.976,0.975,0.975,0.974,0.974,0.974,0.974,0.974,0.974,0.974,0.974,0.974,0.974,0.974,0.975,0.977,0.977,0.978,0.979,0.98,0.98,0.981,0.984,0.984,0.985,0.987,0.988,0.988,0.989,0.989,0.989,0.99,0.99,0.989,0.989,0.989,0.989,0.987,0.985,0.985,0.982,0.979,0.979,0.976,0.973,0.973,0.97,0.967,0.967,0.964,0.962,0.962,0.96,0.958,0.958,0.956,0.955,0.955,0.954,0.953,0.953,0.952,0.951,0.95,0.95,0.949,0.949,0.949,0.948,0.947,0.947,0.947,0.946,0.946,0.946,0.945,0.945,0.945,0.944,0.944,0.945,0.945,0.945,0.946,0.946,0.946,0.947,0.947,0.947,0.947,0.947,0.947,0.947,0.947,0.947,0.947,0.947,0.947,0.947,0.947,0,0,0,0,0,0,0,0,0,0,0,0,0,0,0,0.955,0.955,0.951,0.95,0.95,0.95,0.949,0.948,0.948,0.948,0.947,0.947,0.947,0.947,0.947,0.946,0.946,0.946,0.946,0.944,0.943,0.943,0.943,0.943,0.944,0.944,0.944,0.945,0.945,0.945,0.946,0.946,0.946,0.947,0.947,0.947,0.947,0.947,0.947,0.947,0.947,0.944,0.941,0.941,0.938,0.934,0.934,0.93,0.929,0.929,0.924,0.922,0.922,0.919,0.918,0.917,0.917,0.917,0.916,0.916,0.916,0.915,0.915,0.915,0.915,0.915,0.912,0.911,0.911,0.909,0.907,0.904,0.904,0.902,0.901,0.901,0.899,0.898,0.898,0.897,0.897,0.897,0.897,0.896,0.896,0.895,0.894,0.894,0.892,0.892,0.889,0.889,0.887,0.885,0.885,0.883,0.882,0.882,0.881,0.881,0,0,0,0,0,0,0,0,0,0,0,0,0,0,1.074,1.067,1.067,1.061,1.057,1.057,1.054,1.05,1.05,1.047,1.042,1.042,1.042,0,0,0,0,0,0,0,0,0,0,0,0,0,0,0,0,0,0,0,0,0,0,0,0,0,0,1.334,1.332,1.332,1.33,1.33,1.332,1.329,1.329,1.33,1.329,1.327,1.327,1.327,1.327,1.327,1.327,1.327,0,0,0,0,0,0,0,0,0,0,0,0,0,0,0,0,0,0,0,0,0,0,0,0,0,0,0,0,0,0,0,0,0,0,0,0,0,0,0
0.862,0.862,0.862,0.863,0.863,0.863,0.863,0.864,0.864,0.864,0.865,0.865,0.865,0.865,0.865,0.865,0.865,0.865,0.865,0.865,0.865,0.865,0.864,0.862,0.86,0.857,0.857,0.854,0.851,0.851,0.846,0.84,0.84,0.835,0.832,0.832,0.829,0.829,0.829,0.825,0.822,0.822,0.819,0.816,0.816,0.813,0.809,0.809,0.806,0.804,0.804,0.801,0.799,0.799,0.797,0.795,0.795,0.795,0.794,0.794,0.794,0.794,0.795,0.795,0.794,0.794,0.794,0.794,0.794,0.793,0.793,0.792,0.791,0.791,0.789,0.789,0.789,0.788,0.787,0.787,0.786,0.785,0.785,0.785,0.785,0.784,0.784,0.783,0.783,0.783,0.782,0.781,0.781,0.78,0.779,0.779,0.778,0.777,0.777,0.776,0.776,0.775,0.775,0.775,0.774,0.774,0.774,0.774,0.774,0.773,0.773,0.773,0.773,0.773,0.772,0.772,0.772,0.771,0.771,0.77,0.77,0.77,0.769,0.768,0.768,0.767,0.766,0.766,0.765,0.764,0.763,0.763,0.762,0.762,0.762,0.762,0.761,0.761,0.761,0.761,0.761,0.76,0.76,0.76,0.76,6.077,0.759,0.759,0.759,5.674,5.582,5.434,5.434,5.294,5.11,5.11,4.845,4.606,4.606,4.408,4.227,4.227,4.076,4.076,3.935,3.89,3.876,3.876,3.847,3.818,3.818,3.79,3.776,3.776,3.776,3.776,3.776,3.776,3.762,3.762,3.762,3.735,3.708,3.708,3.694,3.668,3.668,3.655,3.616,3.616,3.579,3.579,0,0,3.458,3.458,3.435,3.39,3.39,3.379,3.356,3.356,3.345,3.324,3.313,3.313,3.313,3.302,3.302,3.292,3.292,3.302,3.302,3.313,3.335,3.335,3.345,3.367,3.379,3.379,3.39,3.401,3.401,3.412,3.424,3.435,3.435,3.435,3.447,3.447,3.447,3.447,3.447,3.458,3.458,3.458,3.458,3.458,3.458,3.458,3.458,3.458,3.458,3.458,3.458,3.458,3.47,3.47,3.47,3.47,3.47,3.47,3.47,3.482,0,0,0,0,0,0,0,0,0,0,0,0,0,0,0,0,0,0,0,0,0,0,0,0,0,0,0,0,0,0,0,0,0,1.362,1.362,1.364,1.366,1.366,0,0,0,0,0,0,0,0,0,0,0,0,0,0,0,0,0,0,0,0,0,0,0,0,0,0,0,0,0,0,0,0,0.974,0.974,0.976,0.976,0.976,0.978,0.979,0.979,0.978,0.978,0.976,0.974,0.974,0.974,0.974,0.974,0.974,0.974,0.974,0.974,0.974,0.974,0.974,0.974,0.975,0.977,0.977,0.978,0.979,0.98,0.98,0.981,0.984,0.984,0.985,0.987,0.988,0.988,0.989,0.989,0.989,0.99,0.99,0.989,0.989,0.989,0.989,0.987,0.985,0.985,0.982,0.979,0.979,0.976,0.973,0.973,0.97,0.967,0.967,0.964,0.962,0.962,0.96,0.958,0.958,0.956,0.955,0.955,0.954,0.953,0.953,0.952,0.951,0.95,0.95,0.949,0.949,0.949,0.948,0.947,0.947,0.947,0.946,0.946,0.946,0.945,0.945,0.945,0.944,0.944,0.945,0.945,0.945,0.946,0.946,0.946,0.947,0.947,0.947,0.947,0.947,0.947,0.947,0.947,0.947,0.947,0.947,0.947,0.947,0.947,0,0,0,0,0,0,0,0,0,0,0,0,0,0,0.957,0.955,0.955,0.951,0.95,0.95,0.95,0.949,0.948,0.948,0.948,0.947,0.947,0.947,0.947,0.947,0.946,0.946,0.946,0.946,0.944,0.943,0.943,0.943,0.943,0.944,0.944,0.944,0.945,0.945,0.945,0.946,0.946,0.946,0.947,0.947,0.947,0.947,0.947,0.947,0.947,0.947,0.944,0.941,0.941,0.938,0.934,0.934,0.93,0.929,0.929,0.924,0.922,0.922,0.919,0.918,0.917,0.917,0.917,0.916,0.916,0.916,0.915,0.915,0.915,0.914,0.914,0.911,0.909,0.909,0.907,0.903,0.903,0.902,0.899,0.898,0.898,0.895,0.895,0.895,0.894,0.893,0.893,0.893,0.892,0.892,0.891,0.89,0.89,0.889,0.888,0.886,0.886,0.885,0.884,0.884,0.882,0.881,0.881,0.881,0.881,0,0,0,0,0,0,0,0,0,0,0,0,0,0,1.074,1.067,1.067,1.061,1.057,1.057,1.054,1.05,1.05,1.047,1.042,1.042,1.042,0,0,0,0,0,0,0,0,0,0,0,0,0,0,0,0,0,0,0,0,0,0,0,0,0,0,1.334,1.332,1.332,1.33,1.33,1.332,1.329,1.329,1.329,1.329,1.327,1.327,1.327,1.327,1.327,1.327,1.327,0,0,0,0,0,0,0,0,0,0,0,0,0,0,0,0,0,0,0,0,0,0,0,0,0,0,0,0,0,0,0,0,0,0,0,0,0,0,0
0.862,0.862,0.862,0.863,0.863,0.863,0.863,0.864,0.864,0.864,0.865,0.865,0.865,0.865,0.865,0.865,0.865,0.865,0.865,0.865,0.865,0.865,0.864,0.864,0.86,0.857,0.857,0.854,0.852,0.852,0.847,0.843,0.843,0.838,0.834,0.834,0.832,0.829,0.829,0.827,0.825,0.825,0.822,0.819,0.819,0.815,0.812,0.812,0.809,0.806,0.806,0.804,0.801,0.799,0.799,0.797,0.797,0.797,0.796,0.796,0.796,0.796,0.796,0.796,0.796,0.796,0.796,0.796,0.796,0.795,0.795,0.794,0.792,0.792,0.791,0.79,0.79,0.789,0.788,0.788,0.787,0.786,0.786,0.785,0.785,0.784,0.784,0.783,0.783,0.783,0.782,0.782,0.782,0.78,0.779,0.779,0.778,0.777,0.777,0.776,0.776,0.775,0.775,0.775,0.775,0.775,0.774,0.774,0.774,0.773,0.773,0.773,0.773,0.773,0.772,0.772,0.772,0.771,0.771,0.77,0.769,0.769,0.768,0.768,0.768,0.766,0.765,0.765,0.765,0.764,0.763,0.762,0.762,0.761,0.761,0.761,0.761,0.761,0.761,0.761,0.761,0.761,0.76,0.76,0.76,0,0.759,0.759,0.759,5.674,5.582,5.434,5.434,5.294,5.11,5.11,4.845,4.485,4.485,4.334,4.175,4.175,4.044,4.044,3.92,3.876,3.876,3.861,3.832,3.804,3.804,3.776,3.748,3.748,3.735,3.735,3.735,3.735,3.721,3.721,3.721,3.694,3.681,3.681,3.655,3.642,3.642,3.629,3.604,3.604,3.554,3.554,0,0,0,0,3.435,3.401,3.401,3.379,3.356,3.356,3.345,3.335,3.324,3.324,3.313,3.302,3.302,3.302,3.302,3.302,3.302,3.324,3.335,3.335,3.345,3.367,3.379,3.379,3.39,3.401,3.401,3.412,3.424,3.424,3.424,3.424,3.435,3.435,3.435,3.435,3.435,3.435,3.447,3.447,3.447,3.447,3.447,3.447,3.447,3.447,3.447,3.447,3.447,3.447,3.458,3.458,3.458,3.458,3.458,3.458,3.458,3.458,0,0,0,0,0,0,0,0,0,0,0,0,0,0,0,0,0,0,0,0,0,0,0,0,0,0,0,0,0,0,1.359,1.359,1.359,1.359,1.36,1.362,1.364,1.364,1.364,0,0,0,0,0,0,0,0,0,0,0,0,0,0,0,0,0,0,0,0,0,0,0,0,0,0,0,0,0,0,0.993,0.993,0.983,0.982,0.982,0.982,0.98,0.98,0.98,0.978,0.978,0.976,0.974,0.974,0.974,0.974,0.974,0.974,0.974,0.974,0.974,0.974,0.974,0.974,0.974,0.976,0.977,0.977,0.979,0.98,0.981,0.981,0.982,0.985,0.985,0.987,0.989,0.989,0.989,0.99,0.99,0.99,0.991,0.991,0.991,0.99,0.99,0.989,0.989,0.987,0.987,0.984,0.981,0.981,0.978,0.975,0.975,0.972,0.97,0.97,0.967,0.965,0.965,0.963,0.96,0.96,0.958,0.956,0.956,0.955,0.954,0.953,0.953,0.952,0.952,0.952,0.951,0.95,0.95,0.95,0.949,0.949,0.948,0.947,0.947,0.947,0.947,0.947,0.947,0.947,0.947,0.947,0.947,0.948,0.949,0.949,0.95,0.951,0.951,0.951,0.951,0.951,0.951,0.951,0.951,0.951,0.95,0.95,0.95,0.951,0.951,0.953,0.95,0.95,0,0,0,0,0,0,0,0,0,0,0,0.957,0.955,0.955,0.953,0.951,0.951,0.951,0.951,0.95,0.95,0.949,0.948,0.948,0.948,0.947,0.947,0.946,0.946,0.946,0.946,0.945,0.943,0.943,0.942,0.942,0.943,0.943,0.944,0.945,0.945,0.946,0.946,0.946,0.947,0.947,0.948,0.948,0.948,0.949,0.949,0.949,0.949,0.947,0.946,0.944,0.942,0.939,0.936,0.936,0.933,0.93,0.93,0.927,0.924,0.924,0.923,0.921,0.921,0.92,0.919,0.919,0.918,0.916,0.916,0.915,0.914,0.914,0.911,0.908,0.908,0.904,0.902,0.902,0.899,0.897,0.897,0.895,0.893,0.892,0.892,0.892,0.891,0.891,0.89,0.889,0.889,0.888,0.887,0.887,0.886,0.885,0.885,0.884,0.883,0.882,0.882,0.882,0.881,0.881,0.88,0.88,0.88,0.88,0,0,0,0,0,0,0,0,0,0,0,0,0,1.07,1.07,1.067,1.063,1.063,1.061,1.061,0,0,0,0,0,0,0,0,0,0,0,0,0,0,0,0,0,0,0,0,0,0,0,0,0,0,0,0,0,0,0,0,0,0,0,0,0,1.329,1.329,1.329,1.329,1.329,1.329,1.327,1.327,1.327,0,0,0,0,0,0,0,0,0,0,0,0,0,0,0,0,0,0,0,0,0,0,0,0,0,0,0,0,0,0,0,0,0,0,0,0,0,0,0,0,0
0.858,0.858,0.858,0.859,0.859,0.859,0.86,0.861,0.861,0.862,0.862,0.862,0.862,0.863,0.863,0.863,0.864,0.864,0.864,0.865,0.865,0.864,0.863,0.863,0.86,0.857,0.857,0.854,0.852,0.848,0.847,0.843,0.843,0.838,0.834,0.834,0.832,0.829,0.829,0.827,0.825,0.824,0.822,0.819,0.818,0.815,0.812,0.811,0.809,0.806,0.806,0.804,0.801,0.799,0.799,0.797,0.797,0.797,0.796,0.796,0.796,0.796,0.796,0.796,0.796,0.796,0.796,0.796,0.796,0.795,0.795,0.794,0.792,0.792,0.791,0.79,0.79,0.789,0.788,0.788,0.787,0.786,0.786,0.785,0.785,0.784,0.784,0.783,0.783,0.783,0.782,0.781,0.781,0.78,0.779,0.779,0.778,0.777,0.777,0.776,0.776,0.775,0.775,0.775,0.775,0.775,0.774,0.774,0.774,0.773,0.773,0.773,0.773,0.773,0.772,0.772,0.772,0.771,0.771,0.77,0.769,0.769,0.768,0.768,0.768,0.766,0.765,0.765,0.765,0.764,0.764,0.762,0.762,0.761,0.761,0.761,0.761,0.762,0.761,0.761,0.761,0.761,0.76,0.76,0.76,0,0.759,0.759,0.759,0,0,0,0,0,0,0,0,4.485,4.485,4.334,4.175,4.175,4.044,4.044,3.92,3.876,3.876,3.861,3.832,3.804,3.804,3.776,3.748,3.748,3.735,3.735,3.735,3.735,3.721,3.721,3.721,3.694,3.681,3.681,3.655,3.642,3.642,3.629,3.604,3.604,3.554,3.554,0,0,0,0,3.435,3.412,3.412,3.379,3.367,3.367,3.356,3.345,3.324,3.324,3.324,3.313,3.313,3.302,3.302,3.313,3.313,3.324,3.345,3.345,3.356,3.367,3.39,3.39,3.39,3.401,3.401,3.412,3.424,3.424,3.424,3.424,3.435,3.435,3.435,3.435,3.435,3.435,3.447,3.447,3.447,3.447,3.447,3.447,3.447,3.447,3.447,3.447,3.447,3.447,3.458,3.458,3.458,3.458,3.458,3.458,3.458,3.458,0,0,0,0,0,0,0,0,0,0,0,0,0,0,0,0,0,0,0,0,0,0,0,0,0,0,0,0,0,0,1.359,1.359,1.359,1.359,1.36,1.362,1.364,1.364,1.364,0,0,0,0,0,0,0,0,0,0,0,0,0,0,0,0,0,0,0,0,0,0,0,0,0,0,0,0,0,0,0.993,0.993,0.99,0.988,0.988,0.985,0.983,0.983,0.982,0.979,0.979,0.976,0.974,0.974,0.974,0.974,0.974,0.974,0.974,0.974,0.974,0.974,0.975,0.975,0.975,0.977,0.979,0.979,0.98,0.982,0.984,0.984,0.985,0.987,0.987,0.989,0.99,0.991,0.991,0.992,0.992,0.992,0.992,0.992,0.992,0.991,0.991,0.989,0.989,0.988,0.988,0.986,0.983,0.983,0.98,0.977,0.977,0.974,0.973,0.973,0.97,0.968,0.968,0.964,0.962,0.962,0.96,0.957,0.957,0.956,0.955,0.954,0.954,0.953,0.952,0.952,0.952,0.951,0.951,0.951,0.95,0.95,0.949,0.948,0.948,0.948,0.948,0.948,0.948,0.948,0.948,0.95,0.95,0.952,0.953,0.953,0.953,0.954,0.954,0.954,0.954,0.954,0.954,0.955,0.955,0.954,0.953,0.953,0.954,0.954,0.953,0.953,0.95,0.95,0,0,0,0,0,0,0,0,0,0,0,0.963,0.96,0.96,0.955,0.955,0.953,0.953,0.953,0.952,0.952,0.951,0.95,0.95,0.948,0.947,0.947,0.946,0.946,0.947,0.946,0.945,0.943,0.943,0.942,0.942,0.943,0.943,0.944,0.945,0.945,0.946,0.946,0.946,0.947,0.947,0.948,0.948,0.948,0.949,0.949,0.949,0.949,0.949,0.947,0.944,0.944,0.942,0.94,0.94,0.938,0.935,0.935,0.932,0.929,0.929,0.927,0.925,0.925,0.924,0.922,0.922,0.92,0.919,0.919,0.916,0.915,0.915,0.911,0.908,0.908,0.904,0.902,0.902,0.899,0.897,0.897,0.895,0.893,0.892,0.892,0.892,0.891,0.891,0.89,0.889,0.889,0.888,0.887,0.887,0.886,0.885,0.885,0.884,0.883,0.882,0.882,0.882,0.881,0.881,0.88,0.88,0.88,0.88,0,0,0,0,0,0,0,0,0,0,0,0,0,0,0,0,0,0,0,0,0,0,0,0,0,0,0,0,0,0,0,0,0,0,0,0,0,0,0,0,0,0,0,0,0,0,0,0,0,0,0,0,0,0,0,0,0,0,0,0,0,0,0,0,0,0,0,0,0,0,0,0,0,0,0,0,0,0,0,0,0,0,0,0,0,0,0,0,0,0,0,0,0,0,0,0,0,0,0,0,0,0,0,0,0,0,0
0.854,0.854,0.854,0.855,0.856,0.856,0.857,0.857,0.857,0.859,0.859,0.859,0.86,0.861,0.862,0.862,0.862,0.862,0.862,0.863,0.863,0.863,0.862,0.862,0.859,0.857,0.855,0.854,0.852,0.848,0.848,0.843,0.842,0.839,0.836,0.836,0.834,0.831,0.829,0.829,0.827,0.824,0.824,0.821,0.818,0.818,0.814,0.811,0.811,0.808,0.806,0.806,0.804,0.801,0.801,0.799,0.799,0.799,0.798,0.798,0.798,0.798,0.797,0.797,0.797,0.797,0.797,0.797,0.796,0.796,0.796,0.795,0.794,0.794,0.792,0.791,0.791,0.79,0.789,0.789,0.788,0.786,0.786,0.785,0.784,0.783,0.783,0.783,0.782,0.782,0.782,0.781,0.781,0.78,0.779,0.779,0.778,0.777,0.777,0.777,0.776,0.776,0.776,0.775,0.775,0.775,0.775,0.774,0.774,0.774,0.773,0.773,0.773,0.773,0.772,0.772,0.772,0.771,0.771,0.77,0.769,0.769,0.768,0.767,0.767,0.766,0.765,0.765,0.764,0.763,0.763,0.762,0.761,0.761,0.761,0.761,0.761,0.761,0.761,0.761,0.761,0.761,0.76,0.76,0.76,0,0.759,0.759,0.759,0,0,0,0,4.711,4.585,4.585,4.466,4.334,4.334,4.227,4.175,4.108,3.996,3.996,3.905,3.861,3.861,3.832,3.804,3.776,3.776,3.735,3.721,3.721,3.708,3.694,3.694,3.694,3.681,3.681,3.681,3.655,3.655,3.642,3.616,3.616,3.616,3.604,3.579,3.579,3.554,3.517,3.517,3.482,3.458,3.458,3.435,3.412,3.412,3.379,3.367,3.367,3.356,3.345,3.324,3.324,3.324,3.313,3.313,3.302,3.302,3.313,3.313,3.324,3.345,3.345,3.356,3.367,3.39,3.39,3.39,3.401,3.401,3.412,3.424,3.424,3.424,3.424,3.435,3.435,3.435,3.435,3.435,3.435,3.435,3.435,3.435,3.447,3.447,3.435,3.435,3.435,3.435,3.435,3.435,3.435,3.447,3.447,3.447,3.447,3.447,3.447,3.447,3.458,0,0,0,0,0,0,0,0,0,0,0,0,0,0,0,0,0,0,0,0,0,0,0,0,0,0,0,0,1.355,1.355,1.355,1.357,1.357,1.357,1.357,1.359,1.359,1.36,1.36,1.36,1.36,0,0,0,0,0,0,0,0,0,0,0,0,0,0,0,0,0,0,0,0,0,0,0,0,0,1.013,1.013,1.01,0.993,0.993,0.99,0.988,0.988,0.985,0.983,0.983,0.982,0.979,0.979,0.976,0.974,0.974,0.974,0.974,0.974,0.974,0.974,0.974,0.974,0.974,0.975,0.975,0.975,0.977,0.979,0.979,0.98,0.982,0.984,0.984,0.985,0.987,0.987,0.989,0.99,0.991,0.991,0.992,0.992,0.992,0.992,0.992,0.991,0.99,0.99,0.989,0.989,0.988,0.988,0.986,0.983,0.983,0.98,0.977,0.977,0.974,0.973,0.973,0.97,0.968,0.968,0.964,0.962,0.962,0.96,0.957,0.957,0.956,0.955,0.954,0.954,0.953,0.952,0.952,0.952,0.951,0.951,0.951,0.95,0.95,0.949,0.948,0.948,0.948,0.948,0.948,0.948,0.948,0.948,0.95,0.95,0.952,0.953,0.953,0.953,0.954,0.954,0.954,0.954,0.954,0.954,0.955,0.955,0.954,0.953,0.953,0.954,0.954,0.953,0.953,0.95,0.95,0.967,0,0,0,0,0,0.99,0.982,0.982,0.982,0.971,0.963,0.96,0.96,0.955,0.955,0.953,0.953,0.953,0.952,0.952,0.951,0.95,0.95,0.948,0.947,0.947,0.946,0.946,0.947,0.946,0.945,0.943,0.943,0.942,0.942,0.943,0.943,0.944,0.944,0.944,0.945,0.946,0.946,0.946,0.947,0.947,0.947,0.948,0.948,0.948,0.949,0.949,0.949,0.947,0.944,0.944,0.942,0.94,0.94,0.938,0.935,0.935,0.932,0.929,0.929,0.927,0.925,0.925,0.924,0.922,0.922,0.92,0.919,0.919,0.916,0.915,0.915,0.911,0.908,0.908,0.904,0.902,0.902,0.899,0.896,0.896,0.895,0.893,0.892,0.892,0.89,0.889,0.889,0.888,0.888,0.888,0.887,0.886,0.886,0.885,0.885,0.885,0.884,0.883,0.882,0.882,0.882,0.881,0.881,0.88,0.879,0.879,0.879,0,0,0,0,0.879,0.879,0.879,0.88,0,0,0,0,0,0,0,0,0,0,0,0,0,0,0,0,0,0,0,0,0,0,0,0,0,0,0,0,0,0,0,0,0,0,0,0,0,0,0,0,0,0,0,0,0,0,0,0,0,0,0,0,0,0,0,0,0,0,0,0,0,0,0,0,0,0,0,0,0,0,0,0,0,0,0,0,0,0,0,0,0,0,0,0,0,0,0,0,0,0,0,0,0,0,0,0,0,0,0
