0.694,0,0,0.69,0.69,0.69,0,0,0,0.68,0.68,0.68,0.682,0.682,0.682,0.681,0.681,0.681,0.681,0.68,0.68,0.679,0.678,0.678,0.678,0.678,0,0,0,0,0,0,0,0,0,0,0,0.716,0.716,0.719,0.715,0.715,0.717,0.717,0.719,0.719,0.719,0.72,0.721,0.723,0.723,0.724,0.724,0.724,0.726,0.726,0.727,0.727,0.729,0.731,0.731,0.732,0.732,0.732,0.733,0.733,0.734,0.733,0.732,0.732,0.73,0.729,0.729,0.728,0.727,0.727,0.726,0.725,0.725,0.724,0.724,0,0,0,0,0,0,0,0,0,0,0,0,0,0,0,0,0,0,0,0,0,0,0,0,0,1.146,1.146,1.144,1.142,1.141,1.141,1.14,1.139,1.139,1.137,1.137,1.137,1.137,1.139,1.139,1.139,1.14,1.14,1.142,1.142,1.142,1.145,1.145,1.148,1.149,1.149,1.153,1.155,1.158,1.158,1.158,1.158,1.158,1.159,1.162,1.164,1.164,1.166,1.168,1.168,1.17,1.178,1.178,1.194,1.213,1.23,1.248,1.248,1.262,1.273,1.282,1.282,1.285,1.285,1.282,1.276,1.276,1.268,1.259,1.259,1.253,1.245,1.245,1.24,1.237,1.234,1.234,1.23,1.229,1.229,1.226,1.224,1.224,1.221,1.218,1.218,1.214,1.211,1.211,1.208,1.205,1.205,1.203,1.203,1.198,1.198,1.196,1.194,1.194,1.191,1.191,1.193,1.193,0,0,0,0,0,0,0,0,0,0,0,0,0,0,0,0,1.341,1.341,1.339,1.337,1.337,1.336,1.334,1.334,0,0,0,0,0,0,0,0,0,0,0,0,0.991,0.991,0.991,0.991,0.991,0.992,0.993,0.993,0.994,0.997,0.997,0.998,1.001,0,0,0,0,0,0,0,0,0,0,0,0,0,0,1.07,1.07,1.068,1.065,1.065,1.064,1.062,1.062,1.06,1.058,1.058,1.054,1.052,1.052,1.051,1.05,1.049,1.049,1.049,1.048,1.048,1.048,1.048,1.049,1.049,1.049,1.049,1.05,1.05,1.051,1.051,1.051,1.051,1.052,1.052,1.053,1.053,1.053,1.054,1.054,1.056,1.056,1.056,1.058,1.058,1.061,1.061,1.061,1.061,1.061,1.063,1.063,1.063,1.067,1.067,1.068,0,0,0,0,0,0,0,0,0,0,0,0,0,0,1.048,1.048,1.048,1.048,1.048,1.048,1.048,1.046,1.045,1.045,1.045,0,0,0,1.034,1.034,1.031,1.027,1.027,1.024,1.021,1.021,1.018,1.015,1.015,1.013,1.009,1.009,1.006,1.003,1.002,1.001,0.999,0.998,0.998,0.996,0.996,0.997,0.997,1.002,0,0,0,0,0,0,0,0,0,0,0,0,0,0,0,0,0,0,0,0,0,0,0,0,0,0,0.936,0.936,0.937,0.937,0.938,0.941,0.941,0.946,0.945,0.945,0.945,0.947,0.947,0.947,0.947,0.949,0.948,0.948,0,0,0,0,0,0,0,0,0,0,0,0,0.89,0.888,0.888,0.888,0.887,0.886,0.886,0.885,0.884,0.884,0.884,0.882,0.882,0.882,0.881,0.881,0.881,0.882,0.882,0.882,0.882,0.882,0.883,0.883,0.884,0.885,0.885,0.885,0.887,0.887,0.887,0.888,0.888,0.888,0.888,0.889,0.888,0.888,0.888,0.888,0.887,0.885,0.885,0.885,0.884,0.884,0.882,0.882,0.882,0.881,0.881,0.881,0.88,0.88,0.881,0.881,0.881,0.882,0.882,0.882,0.884,0.885,0.885,0.885,0.885,0.885,0.885,0.885,0.885,0.885,0.884,0.884,0.883,0.882,0.882,0.882,0.881,0.88,0.88,0.88,0.879,0.879,0.879,0.879,0.879,0.878,0.878,0.878,0.877,0.877,0.877,0.877,0.876,0.876,0.876,0.876,0.875,0.875,0.874,0.874,0.874,0.873,0.872,0.872,0.871,0.87,0.87,0.87,0.868,0.867,0.867,0.867,0.867,0.867,0.866,0.865,0.865,0.865,0.865,0.865,0.865,0.864,0.863,0.863,0.862,0.862,0.862,0.862,0.862,0.862,0.862,0.862,0.862,0.862,0.862,0.862,0.862,0.862,0.862,0.862,0.861,0.86,0.86,0.86,0.859,0.859,0.859,0.859,0.859,1.774,1.762,1.762,1.75,1.732,1.732,1.718,1.706,1.706,1.7,1.692,1.692,1.686,1.686,0,0,0,0,0,0,0,0,0,0,0,0,0,0,0,0,0,0,0,0,0,0,0,0,0,0,0,0,1.243,1.237,1.237,1.237,1.236,1.236,1.236,1.234,1.234,1.234,1.234,1.237,1.237,1.237,1.239,1.24,1.24,1.243,1.245,1.245,1.248,1.251,1.251,1.254,1.257,1.262,1.262,1.266,1.271,1.271,1.277,1.282,1.287,1.287,1.294,1.3,1.3,1.31,1.322,1.334,1.334,1.346,1.359,1.371,1.371
0.694,0,0,0.69,0.69,0.69,0,0,0,0.68,0.68,0.68,0.682,0,0.682,0.681,0.681,0.681,0.681,0.68,0.68,0.679,0.679,0.679,0.678,0.678,0,0,0,0,0,0,0,0,0,0,0,0,0,0,0.715,0.715,0.717,0.717,0.719,0.719,0.719,0.72,0.721,0.723,0.723,0.724,0.724,0.724,0,0,0,0.729,0.729,0.733,0.733,0.734,0.735,0.736,0.736,0.736,0.736,0.736,0.735,0.735,0.734,0.732,0.732,0.73,0.729,0.729,0.727,0.726,0.726,0,0,0,0,0,0,0,0,0,0,0,0,0,0,0,0,0,0,0,0,0,0,0,0,0,0,0,1.148,1.148,1.145,1.142,1.141,1.141,1.14,1.139,1.139,1.137,1.137,1.139,1.139,1.139,1.139,1.139,1.14,1.14,1.142,1.142,1.144,1.145,1.145,1.148,1.149,1.149,1.153,1.155,1.158,1.158,1.158,1.159,1.159,1.161,1.162,1.166,1.166,1.168,1.17,1.17,1.171,1.179,1.179,1.197,1.217,1.236,1.253,1.253,1.268,1.281,1.292,1.292,1.298,1.295,1.295,1.289,1.282,1.282,1.274,1.268,1.268,1.26,1.253,1.253,1.248,1.242,1.242,1.237,1.234,1.234,1.231,1.227,1.227,1.224,1.221,1.221,1.217,1.214,1.214,1.211,1.21,1.21,1.207,1.204,1.203,1.203,1.201,1.2,1.2,1.198,1.198,0,0,0,0,0,0,0,0,0,0,0,0,0,0,0,0,0,0,0,0,0,0,0,0,0,0,0,0,0,0,0,0,0,0,0,0.994,0.993,0.993,0.991,0.991,0.991,0.991,0.991,0.992,0.993,0.993,0.994,0.997,0.997,0.998,1.001,1.006,1.006,1.009,1.012,1.012,1.015,1.015,0,0,0,0,0,0,0,1.067,1.067,1.067,1.065,1.065,1.065,1.063,1.063,1.06,1.058,1.058,1.056,1.053,1.053,1.053,1.051,1.05,1.05,1.049,1.048,1.048,1.048,1.048,1.049,1.049,1.049,1.049,1.05,1.05,1.051,1.051,1.051,1.051,1.052,1.052,1.053,1.054,1.054,1.054,1.054,1.056,1.056,1.056,1.058,1.058,1.061,1.062,1.062,1.062,1.063,1.065,1.065,1.065,1.067,1.067,1.068,0,0,0,0,0,0,0,0,0,0,0,0,0,0,0,1.048,1.048,1.048,1.048,1.047,1.047,1.046,1.045,1.045,1.045,1.041,1.041,1.041,0,0,1.031,1.029,1.029,1.026,1.024,1.024,1.02,1.017,1.017,1.013,1.013,1.014,1.008,1.004,1.002,1.002,1,0.998,0.998,0.996,0.996,0.996,0.996,1.001,0,1.081,1.081,1.097,1.097,0,0,0,0,0,0,0,0,0,0,0,0,0,0,0,0,0,0,0,0,0.937,0.936,0.936,0.937,0.937,0.94,0.944,0.944,0.946,0.946,0.947,0.947,0.947,0.949,0.949,0.951,0.952,0.952,0,0,0,0,0,0,0,0,0,0,0,0,0,0.89,0.888,0.888,0.888,0.888,0.887,0.887,0.885,0.884,0.884,0.884,0.883,0.883,0.882,0.882,0.882,0.882,0.882,0.882,0.882,0.882,0.883,0.884,0.884,0.885,0.885,0.885,0.886,0.888,0.888,0.888,0.888,0.889,0.889,0.89,0.89,0.89,0.889,0.889,0.889,0.888,0.887,0.887,0.886,0.885,0.885,0.885,0.884,0.884,0.883,0.882,0.882,0.882,0.882,0.882,0.882,0.882,0.883,0.884,0.884,0.885,0.885,0.885,0.885,0.886,0.886,0.886,0.885,0.885,0.885,0.885,0.885,0.883,0.882,0.882,0.882,0.881,0.88,0.88,0.88,0.879,0.879,0.879,0.879,0.879,0.878,0.878,0.878,0.878,0.878,0.877,0.877,0.877,0.876,0.876,0.876,0.876,0.876,0.875,0.874,0.874,0.873,0.873,0.873,0.871,0.87,0.87,0.87,0.868,0.867,0.867,0.867,0.865,0.865,0.865,0.865,0.865,0.865,0.864,0.864,0.864,0.863,0.862,0.862,0.862,0.862,0.862,0.862,0.862,0.862,0.862,0.862,0.862,0.862,0.862,0.862,0,0,0,0,0,0,0,0.86,0.859,0.859,1.789,1.78,1.78,1.768,1.759,1.759,1.747,1.732,1.732,1.718,1.706,1.706,1.698,1.692,1.692,1.686,1.686,0,0,0,0,0,0,0,0,0,0,0,0,0,0,0,0,0,0,0,1.268,1.268,1.263,1.26,1.26,1.254,1.251,1.251,1.248,1.243,1.242,1.242,1.239,1.237,1.237,1.237,1.237,1.237,1.237,1.237,1.237,1.237,1.239,1.24,1.242,1.242,1.245,1.246,1.246,1.249,1.253,1.253,1.256,1.259,1.265,1.265,1.268,1.274,1.274,1.279,1.284,1.289,1.289,1.295,1.302,1.302,1.31,1.322,1.33,1.33,1.337,1.348,1.357,1.357
0.694,0,0,0.69,0.69,0.69,0,0,0,0.68,0.68,0.68,0.682,0,0.682,0.681,0.681,0.681,0.681,0.68,0.68,0.679,0.679,0.679,0.678,0.678,0.679,0.679,0.68,0.681,0,0,0,0,0,0,0,0,0,0,0.715,0.715,0.717,0.717,0.713,0.713,0.713,0.715,0.717,0.717,0.723,0.724,0.724,0.724,0,0,0,0.729,0.729,0.733,0.733,0.734,0.735,0.736,0.736,0.736,0.736,0.736,0.735,0.735,0.734,0.732,0.732,0.73,0.729,0.729,0.727,0.726,0.726,0,0,0,0,0,0,0,0,0,0,0,0,0,0,0,0,0,0,0,0,0,0,0,0,0,0,1.15,1.148,1.148,1.145,1.142,1.141,1.141,1.14,1.139,1.139,1.137,1.137,1.137,1.137,1.137,1.139,1.139,1.139,1.14,1.141,1.141,1.142,1.144,1.144,1.146,1.149,1.149,1.153,1.154,1.157,1.157,1.158,1.158,1.158,1.161,1.162,1.166,1.166,1.168,1.17,1.17,1.171,1.179,1.179,1.197,1.218,1.237,1.254,1.254,1.271,1.287,1.298,1.298,1.308,1.308,1.308,1.303,1.297,1.297,1.287,1.281,1.281,1.274,1.265,1.265,1.26,1.253,1.253,1.245,1.24,1.24,1.236,1.231,1.231,1.227,1.224,1.224,1.22,1.217,1.217,1.214,1.214,1.213,1.213,1.21,1.21,0,0,0,0,0,0,0,0,0,0,0,0,0,0,0,0,0,0,0,0,0,0,0,0,0,0,0,0,0,0,0,0,0,0,0,0,0,0,0,0,0,0.994,0.993,0.993,0.992,0.992,0.992,0.992,0.992,0.993,0.995,0.995,0.996,0.999,0.999,1.001,1.004,1.006,1.006,1.009,1.012,1.012,1.015,1.015,0,0,0,0,0,0,0,1.067,1.067,1.067,1.068,1.069,1.067,1.065,1.065,1.063,1.06,1.06,1.058,1.056,1.054,1.054,1.052,1.051,1.051,1.05,1.049,1.049,1.049,1.049,1.049,1.049,1.049,1.05,1.05,1.05,1.052,1.052,1.051,1.051,1.053,1.053,1.053,1.054,1.054,1.054,1.054,1.056,1.056,1.056,1.058,1.058,1.061,1.062,1.063,1.063,1.064,1.065,1.065,1.068,1.069,1.069,1.071,0,0,0,0,0,0,0,0,0,0,0,0,0,0,0,0,0,0,0,1.047,1.047,1.046,1.045,1.045,1.045,1.041,1.041,1.041,0,0,1.033,1.032,1.032,1.032,1.027,1.027,1.024,1.024,0,1.016,1.014,1.014,1.009,1.007,1.003,1.003,1,0.998,0.998,0.997,0.996,0.996,0.996,1.001,0,1.081,1.081,1.097,1.097,0,0,0,0,0,0,0,0,0,0,0,0,0,0,0,0,0,0,0,0,0.937,0.937,0.938,0.94,0.94,0.942,0.944,0.944,0.946,0.947,0.949,0.949,0.951,0.953,0.953,0.954,0,0,0,0,0,0,0,0,0,0,0,0,0,0,0,0,0.888,0.888,0.888,0.888,0.887,0.887,0.886,0.885,0.885,0.885,0.885,0.885,0.884,0.884,0.883,0.883,0.883,0.884,0.884,0.884,0.885,0.885,0.885,0.886,0.886,0.886,0.888,0.888,0.888,0.888,0.889,0.89,0.89,0.89,0.89,0.89,0.89,0.889,0.889,0.888,0.888,0.888,0.887,0.887,0.887,0.885,0.885,0.885,0.885,0.885,0.885,0.885,0.884,0.884,0.885,0.885,0.885,0.885,0.885,0.886,0.887,0.887,0.887,0.887,0.887,0.887,0.886,0.886,0.885,0.885,0.885,0.884,0.883,0.883,0.882,0.882,0.881,0.881,0.881,0.88,0.88,0.879,0.879,0.879,0.879,0.879,0.879,0.879,0.879,0.878,0.878,0.878,0.877,0.877,0.877,0.876,0.876,0.876,0.875,0.875,0.875,0.873,0.873,0.873,0.871,0.87,0.87,0.869,0.867,0.867,0.867,0.865,0.865,0.865,0.865,0.865,0.865,0.864,0.864,0.864,0.863,0.862,0.862,0.862,0.862,0.862,0.862,0.862,0.862,0.862,0.862,0.862,0.862,0.862,0,0,0,0,0,0,0,0,0,1.799,1.799,1.789,1.78,1.78,1.768,1.759,1.759,1.747,1.732,1.732,1.718,1.706,1.706,1.698,1.692,1.692,1.686,1.686,0,0,0,0,0,0,0,0,0,0,0,0,0,0,0,0,0,0,0,1.268,1.268,1.263,1.26,1.26,1.254,1.251,1.251,1.248,1.245,1.245,1.245,1.243,1.24,1.24,1.24,1.239,1.239,1.239,1.239,1.24,1.24,1.242,1.242,1.243,1.243,1.245,1.248,1.248,1.251,1.253,1.253,1.256,1.26,1.265,1.265,1.27,1.274,1.274,1.281,1.285,1.292,1.292,1.297,1.302,1.302,1.31,1.322,1.33,1.33,1.337,1.348,1.357,1.357
0.694,0,0,0,0,0,0.685,0.685,0.685,0,0,0.682,0.682,0,0.682,0.682,0.681,0.681,0.681,0.68,0.68,0.68,0.68,0.68,0.68,0.679,0.679,0.679,0.68,0.681,0.682,0.682,0.683,0.686,0.686,0.687,0.69,0,0,0,0,0,0,0,0.713,0.713,0.709,0.709,0.717,0.717,0,0,0,0,0,0,0,0,0.735,0.735,0.735,0.737,0.738,0.738,0.738,0.738,0.739,0.738,0.738,0.738,0.736,0.734,0.734,0.733,0.731,0.731,0.729,0.729,0,0,0,0,0,0,0,0,0,0,0,0,0,0,0,0,0,0,0,0,0,0,0,0,0,0,0,1.15,1.149,1.149,1.146,1.144,1.141,1.141,1.14,1.139,1.139,1.139,1.137,1.137,1.137,1.137,1.137,1.137,1.137,1.139,1.14,1.14,1.141,1.142,1.142,1.144,1.146,1.146,1.15,1.153,1.155,1.155,1.157,1.158,1.158,1.159,1.162,1.166,1.166,1.168,1.17,1.17,1.171,1.179,1.179,1.194,1.214,1.231,1.249,1.249,1.266,1.284,1.298,1.298,1.308,1.308,1.308,1.303,1.297,1.297,1.287,1.281,1.281,1.274,1.265,1.265,1.26,1.253,1.253,1.245,1.24,1.24,1.236,1.231,1.231,1.227,1.224,1.224,1.22,1.217,1.217,1.214,1.214,1.213,1.213,1.21,1.21,1.214,1.214,1.214,0,1.215,1.215,1.217,1.217,1.217,1.22,0,0,0,0,0,0,0,0,0,0,0,0,0,0,0,0,0,0,0,0,0,0,0.99,0.99,0.99,0.991,0.991,0.992,0.992,0.993,0.993,0.993,0.993,0.993,0.992,0.992,0.992,0.992,0.992,0.993,0.995,0.995,0.996,0.999,0.999,1.001,1.004,1.006,1.006,1.009,1.012,1.012,1.014,1.015,1.018,1.018,0,0,0,0,1.061,1.061,1.065,1.065,1.068,1.069,1.067,1.065,1.065,1.063,1.06,1.06,1.058,1.056,1.054,1.054,1.052,1.051,1.051,1.05,1.049,1.049,1.049,1.049,1.049,1.049,1.049,1.05,1.05,1.05,1.05,1.05,1.05,1.05,1.05,1.05,1.052,1.053,1.053,1.053,1.053,1.053,1.053,1.054,1.058,1.058,1.061,1.062,1.063,1.063,1.064,1.065,1.065,1.068,1.069,1.069,1.071,1.078,0,0,0,0,0,0,0,0,0,0,0,0,0,0,0,0,0,0,1.047,1.047,1.046,1.045,1.045,1.045,1.041,1.041,1.041,0,0,1.033,1.032,1.032,1.032,1.027,1.027,1.024,1.023,1.023,1.016,1.014,1.011,1.009,1.007,1.003,1.003,1,0.998,0.998,0.997,0.996,0.996,0.996,0.999,0,1.081,1.081,1.097,1.097,0,0,0,0,0,0,0,0,0,0,0,0,0,0,0,0,0,0,0.937,0.937,0.937,0.937,0.938,0.94,0.94,0.942,0.944,0.944,0.946,0.947,0.949,0.949,0.951,0.953,0.953,0.954,0,0,0,0,0,0,0,0,0,0,0,0,0,0,0,0,0.888,0.888,0.888,0.888,0.887,0.887,0.886,0.885,0.885,0.885,0.885,0.885,0.884,0.884,0.883,0.883,0.883,0.884,0.884,0.884,0.885,0.885,0.885,0.886,0.886,0.886,0.888,0.888,0.888,0.888,0.889,0.89,0.89,0.89,0.89,0.89,0.89,0.889,0.889,0.888,0.888,0.888,0.887,0.887,0.887,0.885,0.885,0.885,0.885,0.885,0.885,0.885,0.884,0.884,0.885,0.885,0.885,0.885,0.885,0.886,0.887,0.887,0.887,0.887,0.887,0.887,0.886,0.886,0.885,0.885,0.885,0.884,0.883,0.883,0.882,0.882,0.881,0.881,0.881,0.88,0.88,0.879,0.879,0.879,0.879,0.879,0.879,0.879,0.879,0.878,0.878,0.878,0.877,0.877,0.877,0.876,0.876,0.876,0.875,0.875,0.875,0.873,0.873,0.873,0.871,0.87,0.87,0.869,0.867,0.867,0.867,0.865,0.865,0.865,0.864,0.864,0.864,0.864,0.864,0.863,0.862,0.862,0.862,0.862,0.862,0.862,0.862,0.862,0.862,0.862,0.862,0.862,0.862,0.862,0,0,0,0,0,0,0,0,1.818,1.799,1.799,1.789,1.78,1.78,1.768,1.759,1.759,1.747,1.729,1.729,1.715,1.703,1.703,1.695,1.689,1.689,1.684,1.675,1.675,1.675,0,0,0,0,0,0,0,0,0,0,0,0,0,0,0,0,1.274,1.268,1.268,1.263,1.26,1.26,1.254,1.251,1.251,1.248,1.245,1.245,1.245,1.243,1.24,1.24,1.24,1.239,1.239,1.239,1.239,1.24,1.24,1.242,1.242,1.243,1.243,1.245,1.248,1.248,1.251,1.253,1.253,1.256,1.26,1.265,1.265,1.27,1.274,1.274,1.279,1.285,1.29,1.29,1.297,1.302,1.302,1.308,1.317,1.322,1.322,1.329,1.336,1.344,1.344
0.695,0,0,0,0,0,0.685,0.685,0.685,0,0,0.685,0.685,0,0,0.683,0.683,0.683,0.683,0.682,0.682,0.682,0.682,0.682,0.681,0.681,0.681,0.681,0.682,0.682,0.682,0.682,0.683,0.686,0.686,0.687,0.69,0,0,0,0,0,0,0,0,0,0.709,0.709,0,0,0,0,0,0,0,0,0,0,0,0.739,0.739,0.739,0.74,0.74,0.74,0.74,0.74,0.74,0.74,0.74,0.738,0.737,0.737,0.734,0.733,0.733,0.73,0.73,0,0,0,0,0,0,0,0,0,0,0,0,0,0,0,0,0,0,0,0,0,0,0,0,0,0,0,0,1.149,1.149,1.148,1.145,1.144,1.144,1.141,1.139,1.139,1.139,1.137,1.137,1.137,1.137,1.137,1.136,1.136,1.136,1.137,1.137,1.137,1.14,1.14,1.141,1.144,1.144,1.146,1.15,1.154,1.154,1.155,1.157,1.157,1.158,1.162,1.166,1.166,1.167,1.168,1.168,1.168,1.176,1.176,1.19,1.214,1.226,1.243,1.243,1.262,1.277,1.294,1.294,1.303,1.305,1.305,1.3,1.297,1.297,1.292,1.285,1.285,1.282,1.276,1.276,1.265,1.257,1.257,1.251,1.245,1.245,1.239,1.236,1.236,1.229,1.226,1.226,1.221,1.218,1.218,1.217,1.217,1.215,1.215,1.214,1.214,1.214,1.214,1.214,1.221,1.215,1.215,1.217,1.217,1.217,1.22,0,0,0,0,0,0,0,0,0,0,0,0,0,0,0,0,0.986,0.986,0.986,0.987,0.988,0.988,0.989,0.989,0.989,0.99,0.991,0.992,0.992,0.993,0.993,0.993,0.994,0.994,0.993,0.993,0.993,0.993,0.993,0.993,0.995,0.995,0.997,0.999,0.999,1.001,1.004,1.007,1.007,1.01,1.012,1.012,1.014,1.015,1.017,1.017,0,1.042,1.042,1.042,1.059,1.059,1.063,1.063,1.068,1.069,1.069,1.068,1.068,1.065,1.063,1.063,1.061,1.059,1.058,1.058,1.054,1.053,1.053,1.052,1.051,1.051,1.051,1.05,1.05,1.049,1.049,1.049,1.049,1.049,1.048,1.048,1.048,1.048,1.048,1.048,1.049,1.051,1.051,1.051,1.051,1.052,1.052,1.054,1.057,1.057,1.06,1.061,1.063,1.063,1.065,1.067,1.067,1.069,1.072,1.072,1.074,1.078,1.176,0,0,0,0,0,0,0,0,0,0,0,0,0,0,0,0,0,0,0,0,0,0,0,0,0,0,0,0,0,1.034,1.034,1.032,1.03,1.03,1.027,1.023,1.02,1.019,1.015,1.011,1.011,1.008,1.003,1.003,1,0.998,0.998,0.996,0.996,0.996,0.996,0.998,0.999,0.999,1,1.029,1.029,1.029,0,0,0,0,0,0,0,0,0,0,0,0,0,0,0,0,0.936,0.936,0.937,0.937,0.939,0.941,0.943,0.943,0.946,0.947,0.947,0.949,0.95,0.953,0.953,0.954,0.955,0.955,0,0,0,0,0,0,0,0,0,0,0,0,0,0,0,0,0,0,0,0,0.888,0.888,0.888,0.887,0.886,0.886,0.885,0.885,0.885,0.885,0.885,0.885,0.885,0.885,0.885,0.885,0.885,0.885,0.886,0.886,0.887,0.888,0.888,0.888,0.888,0.889,0.889,0.889,0.89,0.89,0.89,0.891,0.891,0.891,0.89,0.89,0.89,0.889,0.889,0.888,0.888,0.888,0.887,0.887,0.887,0.886,0.886,0.886,0.886,0.886,0.886,0.886,0.886,0.886,0.887,0.887,0.887,0.888,0.888,0.888,0.887,0.887,0.887,0.887,0.887,0.886,0.885,0.885,0.885,0.883,0.883,0.882,0.882,0.882,0.882,0.881,0.881,0.881,0.88,0.88,0.88,0.879,0.879,0.879,0.879,0.879,0.879,0.879,0.879,0.878,0.878,0.878,0.877,0.877,0.877,0.876,0.876,0.876,0.875,0.874,0.874,0.873,0.871,0.871,0.87,0.868,0.868,0.867,0.865,0.865,0.864,0.863,0.863,0.862,0.862,0.862,0.862,0.861,0.861,0.861,0.861,0.861,0.861,0.861,0.861,0.862,0.862,0.862,0.862,0.862,0.862,0,0,0,0,0,0,0,0,1.818,1.808,1.808,1.796,1.783,1.783,1.771,1.756,1.756,1.744,1.723,1.723,1.712,1.7,1.7,1.692,1.686,1.686,1.675,1.659,1.659,1.659,0,0,0,0,0,0,0,0,0,0,0,0,0,1.285,1.281,1.281,1.274,1.27,1.27,1.266,1.262,1.262,1.257,1.254,1.251,1.251,1.248,1.246,1.246,1.243,1.243,1.243,1.24,1.24,1.24,1.24,1.24,1.242,1.242,1.242,1.243,1.245,1.245,1.246,1.248,1.248,1.251,1.254,1.254,1.256,1.26,1.263,1.263,1.27,1.273,1.273,1.277,1.282,1.287,1.287,1.294,1.298,1.298,1.303,1.31,1.315,1.315,1.322,1.327,1.327,1.332
0.693,0.693,0.693,0.693,0,0,0.685,0.685,0.685,0,0,0.685,0.685,0,0,0.683,0.683,0.683,0.683,0.682,0.682,0.682,0.682,0.682,0.681,0.681,0.681,0.681,0.682,0.682,0.682,0.682,0.683,0.685,0.685,0.686,0.687,0.688,0.688,0.69,0.693,0.693,0.696,0.699,0.701,0.701,0.704,0.704,0.707,0.707,0,0,0,0,0,0,0,0,0,0.739,0.739,0.739,0.74,0.74,0.74,0.74,0.74,0.74,0.74,0.74,0.738,0.737,0.737,0.734,0.733,0.732,0.73,0.729,0.726,0.726,0.724,0.723,0.723,0.723,0,0,0,0,0,0,0,0,0,0,0,0,0,0,0,0,0,0,0,0,0,0,0,0,1.149,1.148,1.144,1.144,1.142,1.141,1.141,1.139,1.137,1.137,1.137,1.137,1.137,1.136,1.136,1.136,1.137,1.137,1.137,1.14,1.14,1.141,1.144,1.144,1.146,1.15,1.154,1.154,1.155,1.157,1.157,1.158,1.162,1.166,1.166,1.167,1.168,1.168,1.168,1.176,1.176,1.19,1.226,1.226,1.243,1.243,1.262,1.277,1.294,1.294,1.303,1.305,1.305,1.3,1.297,1.297,1.292,1.285,1.285,1.282,1.276,1.276,1.266,1.257,1.257,1.251,1.246,1.246,1.239,1.236,1.236,1.23,1.229,1.229,1.223,1.221,1.221,1.22,1.22,1.217,1.217,1.217,1.217,1.217,1.217,1.22,1.221,1.221,1.221,1.221,1.223,1.223,1.226,0,0,0,0,0,0,0,0,0,0,0,0,0,0,0,0,0.986,0.986,0.986,0.987,0.988,0.988,0.989,0.989,0.989,0.99,0.992,0.992,0.992,0.994,0.994,0.994,0.995,0.995,0.994,0.993,0.993,0.993,0.993,0.994,0.996,0.996,0.997,0.999,0.999,1.001,1.004,1.007,1.007,1.01,1.012,1.012,1.014,1.015,1.017,1.017,0,1.042,1.042,1.042,1.059,1.059,1.063,1.063,1.068,1.071,1.07,1.069,1.069,1.068,1.065,1.063,1.063,1.062,1.061,1.061,1.058,1.056,1.056,1.054,1.053,1.053,1.052,1.051,1.051,1.05,1.05,1.049,1.049,1.049,1.048,1.048,1.048,1.048,1.048,1.048,1.049,1.051,1.051,1.051,1.051,1.052,1.052,1.054,1.057,1.057,1.06,1.061,1.063,1.063,1.065,1.067,1.067,1.069,1.074,1.074,1.077,1.176,1.176,0,0,0,0,0,0,0,0,0,0,0,0,0,0,0,0,0,0,0,0,0,0,0,0,0,0,0,0,0,1.034,1.034,1.034,1.03,1.03,1.028,1.025,1.02,1.02,1.017,1.012,1.012,1.008,1.008,0,1.001,0.998,0.998,0.996,0.996,0.996,0.996,0.998,0.999,0.999,1,1.029,1.029,1.029,0,0,0,0,0,0,0,0,0,0,0,0,0,0,0,0,0.936,0.936,0.939,0.939,0.941,0.943,0.946,0.946,0.948,0.95,0.95,0.953,0.955,0.957,0.957,0.958,0,0,0,0,0,0,0,0,0,0,0,0,0,0,0,0,0,0,0,0,0,0,0,0.893,0.893,0.89,0.89,0.89,0.888,0.887,0.887,0.886,0.886,0.885,0.885,0.885,0.886,0.887,0.887,0.887,0.888,0.888,0.888,0.888,0.889,0.889,0.89,0.89,0.89,0.891,0.891,0.891,0.891,0.891,0.891,0.891,0.891,0.891,0.891,0.891,0.891,0.89,0.889,0.889,0.889,0.888,0.888,0.888,0.888,0.888,0.888,0.888,0.888,0.888,0.888,0.888,0.888,0.888,0.888,0.889,0.889,0.888,0.888,0.888,0.888,0.887,0.887,0.887,0.886,0.886,0.885,0.884,0.884,0.883,0.882,0.882,0.882,0.882,0.882,0.882,0.881,0.881,0.881,0.88,0.88,0.88,0.879,0.879,0.879,0.879,0.879,0.879,0.879,0.879,0.879,0.879,0.879,0.878,0.878,0.878,0.877,0.876,0.876,0.874,0.873,0.873,0.871,0.869,0.869,0.867,0.865,0.865,0.864,0.863,0.863,0.862,0.862,0.862,0.862,0.861,0.861,0.861,0.861,0.861,0.861,0.861,0.861,0.862,0.862,0,0,0,0,0,0,0,0,0,0,0,0,1.828,1.808,1.808,1.796,1.783,1.783,1.771,1.756,1.756,1.744,1.723,1.723,1.712,1.7,1.7,1.692,1.686,1.686,1.675,1.659,1.659,1.659,0,0,0,0,0,0,0,0,0,0,0,0,0,1.285,1.281,1.281,1.276,1.271,1.271,1.268,1.263,1.263,1.259,1.256,1.253,1.253,1.251,1.248,1.248,1.248,1.245,1.245,1.243,1.242,1.242,1.242,1.242,1.243,1.243,1.243,1.243,1.245,1.245,1.246,1.249,1.249,1.251,1.254,1.254,1.256,1.26,1.263,1.263,1.27,1.273,1.273,1.277,1.282,1.287,1.287,1.294,1.298,1.298,1.303,1.31,1.315,1.315,1.322,1.327,1.327,1.332
0.693,0.693,0.693,0.693,0,0,0,0,0,0,0,0,0,0,0,0.686,0.685,0.685,0.685,0.688,0,0.684,0.684,0.684,0.683,0.683,0.683,0.683,0.683,0.684,0.684,0.684,0.684,0.685,0.685,0.686,0.687,0.687,0.687,0.688,0.69,0.69,0.692,0.693,0.695,0.695,0.696,0.704,0.707,0.707,0,0,0,0,0,0,0,0,0,0,0,0.743,0.742,0.742,0.742,0.743,0.743,0.743,0.742,0.741,0.741,0.739,0.737,0.737,0.734,0.732,0.732,0.729,0.726,0.726,0.724,0.723,0.723,0.723,0.722,0.722,0.722,0.722,0.722,0.722,0.722,0.722,0.722,0.722,0.722,0,0,0,0,0,0,0,0,0,0,0,0,0,1.149,1.148,1.144,1.144,1.141,1.14,1.14,1.139,1.137,1.137,1.136,1.135,1.135,1.135,1.134,1.134,1.134,1.135,1.135,1.137,1.137,1.137,1.141,1.141,1.144,1.148,1.15,1.15,1.151,1.154,1.154,1.155,1.159,1.159,1.163,1.164,1.164,1.164,1.166,1.172,1.172,1.186,1.203,1.221,1.243,1.243,1.257,1.274,1.287,1.287,1.298,1.298,1.298,1.295,1.292,1.292,1.287,1.284,1.284,1.277,1.273,1.273,1.266,1.257,1.257,1.251,1.246,1.246,1.239,1.236,1.236,1.23,1.229,1.229,1.223,1.221,1.221,1.22,1.22,1.217,1.217,1.217,1.217,1.217,1.217,1.22,1.221,1.221,1.221,1.221,1.223,1.223,1.226,1.231,1.231,0,0,0,0,0,0,0,0,0,0,0,0,0,0.985,0.985,0.986,0.986,0.986,0.987,0.987,0.988,0.989,0.989,0.99,0.992,0.992,0.992,0.994,0.994,0.994,0.995,0.995,0.994,0.993,0.993,0.993,0.993,0.994,0.996,0.996,0.997,0.999,0.999,1.001,1.004,1.006,1.006,1.01,1.012,1.012,1.014,1.015,1.017,1.017,1.03,1.03,1.03,1.04,1.05,1.058,1.062,1.062,1.067,1.071,1.07,1.069,1.069,1.068,1.065,1.063,1.063,1.062,1.061,1.061,1.058,1.056,1.056,1.054,1.053,1.053,1.052,1.051,1.051,1.05,1.049,1.049,1.047,1.046,1.045,1.045,1.044,1.044,1.044,1.044,1.045,1.046,1.046,1.046,1.047,1.049,1.049,1.051,1.054,1.054,1.057,1.059,1.059,1.06,1.064,1.065,1.065,1.068,1.07,1.07,1.077,1.176,1.176,1.22,0,0,0,0,0,0,0,0,0,0,0,0,0,0,0,0,0,0,0,0,0,0,0,0,0,0,0,0,1.032,1.032,1.032,1.03,1.03,1.028,1.025,1.02,1.02,1.017,1.012,1.012,1.008,1.008,0,1.001,0.998,0.998,0.996,0.996,0.996,0.996,0.998,0.998,0.998,0.998,1.029,1.029,1.029,0,0,0,0,0,0,0,0,0,0,0,0,0,0.938,0.937,0.937,0.936,0.936,0.939,0.939,0.941,0.943,0.946,0.946,0.948,0.95,0.95,0.953,0.955,0.957,0.957,0.958,0,0,0,0,0,0,0,0,0,0,0,0,0,0,0,0,0,0,0,0,0,0,0,0.893,0.893,0.89,0.89,0.89,0.888,0.887,0.887,0.886,0.886,0.885,0.885,0.885,0.886,0.887,0.887,0.887,0.888,0.888,0.888,0.888,0.889,0.889,0.89,0.89,0.89,0.891,0.891,0.891,0.891,0.891,0.891,0.891,0.891,0.891,0.891,0.891,0.891,0.89,0.889,0.889,0.889,0.888,0.888,0.888,0.888,0.888,0.888,0.888,0.888,0.888,0.888,0.888,0.888,0.888,0.888,0.889,0.889,0.888,0.888,0.888,0.888,0.887,0.887,0.887,0.886,0.886,0.885,0.884,0.884,0.883,0.882,0.882,0.882,0.882,0.882,0.882,0.881,0.881,0.881,0.88,0.88,0.88,0.879,0.879,0.879,0.879,0.879,0.879,0.879,0.879,0.879,0.879,0.879,0.878,0.878,0.878,0.877,0.876,0.876,0.874,0.873,0.873,0.871,0.869,0.869,0.867,0.865,0.865,0.863,0.862,0.862,0.86,0.86,0.861,0.859,0.859,0.858,0.858,0.858,0.858,0.858,0.858,0.859,0.859,0.859,0,0,0,0,0,0,0,0,0,0,0,0,1.828,1.808,1.808,1.796,1.783,1.783,1.768,1.753,1.753,1.738,1.72,1.72,1.709,1.698,1.698,1.689,1.684,1.684,1.673,1.646,1.646,1.646,0,0,0,0,0,0,0,0,0,0,0,1.297,1.297,1.285,1.281,1.281,1.276,1.271,1.271,1.268,1.263,1.263,1.259,1.256,1.253,1.253,1.251,1.248,1.248,1.246,1.245,1.245,1.243,1.242,1.242,1.242,1.242,1.242,1.242,1.243,1.243,1.245,1.245,1.246,1.248,1.248,1.251,1.253,1.253,1.256,1.259,1.263,1.263,1.266,1.271,1.271,1.274,1.279,1.284,1.284,1.289,1.294,1.294,1.298,1.305,1.31,1.31,1.313,1.318,1.318,1.325
0.693,0.693,0.693,0.694,0.695,0.695,0,0,0,0,0.696,0.696,0.696,0,0,0.689,0.688,0.688,0.688,0.688,0,0.687,0.686,0.686,0.685,0.685,0.685,0.685,0.685,0.686,0.686,0.686,0.687,0.687,0.687,0.687,0.687,0.687,0.687,0.688,0.689,0.689,0.691,0.691,0.691,0.691,0.696,0,0,0,0,0,0,0,0,0,0,0,0,0,0,0.745,0.745,0.745,0.745,0.745,0.745,0.745,0.744,0.743,0.743,0.74,0.739,0.739,0.736,0.733,0.733,0.73,0.728,0.728,0.726,0.724,0.724,0.723,0.722,0.722,0.722,0.722,0.722,0.722,0.722,0.722,0.722,0.722,0.722,0.723,0.723,0,0,0,0,0,0,0,0,0,0,0,0,0,0,0,1.141,1.14,1.14,1.139,1.137,1.137,1.135,1.132,1.132,1.132,1.131,1.131,1.131,1.131,1.131,1.132,1.132,1.134,1.136,1.136,1.14,1.144,1.146,1.146,1.148,1.15,1.15,1.153,1.155,1.155,1.159,1.161,1.162,1.162,1.162,1.167,1.167,1.179,1.196,1.214,0,1.251,1.251,1.268,1.281,1.281,1.292,1.29,1.29,1.289,1.285,1.285,1.281,1.277,1.277,1.274,1.27,1.27,1.263,1.257,1.257,1.251,1.246,1.246,1.24,1.234,1.234,1.231,1.229,1.229,1.224,1.223,1.223,1.223,1.223,1.223,1.223,1.223,1.223,1.223,1.223,1.224,1.226,1.226,1.227,1.229,1.229,1.229,1.23,1.231,1.231,0,0,0,0,0,0,0,0,0,0,0,0,0,0.985,0.985,0.985,0.985,0.986,0.986,0.986,0.988,0.989,0.989,0.99,0.991,0.993,0.993,0.994,0.995,0.995,0.995,0.995,0.995,0.994,0.993,0.993,0.993,0.994,0.995,0.995,0.997,0.999,0.999,1.001,1.003,1.006,1.006,1.009,1.012,1.012,1.013,1.015,1.017,1.017,1.021,1.03,1.03,1.038,1.047,1.054,1.054,1.06,1.067,1.072,1.071,1.071,1.071,1.07,1.068,1.067,1.067,1.063,1.062,1.062,1.06,1.058,1.058,1.057,1.054,1.054,1.053,1.052,1.052,1.05,1.049,1.049,1.046,1.044,1.042,1.042,1.04,1.038,1.038,1.038,1.038,1.04,1.04,1.041,1.041,1.041,1.043,1.047,1.049,1.049,1.053,1.056,1.056,1.059,1.062,1.064,1.064,1.067,1.07,1.07,1.077,1.22,1.22,1.22,0,0,0,0,0,0,0,0,0,0,0,0,0,0,0,0,0,0,0,0,0,0,0,0,0,0,0,0,1.032,1.032,1.032,1.028,1.028,1.027,1.025,1.021,1.021,1.018,1.013,1.013,1.008,1.005,1.005,1.001,0.998,0.998,0.996,0.996,0.996,0.996,0.997,0.997,0.997,0.996,0.996,0.996,0.994,0.991,0.991,0.991,0,0,0,0,0,0,0,0,0,0,0.938,0.937,0.937,0.937,0.938,0.941,0.943,0.943,0.946,0.948,0.948,0.952,0.954,0.955,0.955,0.957,0.959,0.959,0.961,0,0,0,0,0,0,0,0,0,0,0,0,0,0,0,0,0,0,0,0,0,0,0,0,0,0.901,0.898,0.898,0.895,0.89,0.89,0.888,0.888,0.888,0.888,0.888,0.888,0.888,0.888,0.888,0.889,0.889,0.889,0.889,0.889,0.889,0.89,0.891,0.891,0.891,0.892,0.892,0.892,0.892,0.892,0.892,0.892,0.892,0.892,0.892,0.892,0.892,0.891,0.891,0.891,0.891,0.891,0.891,0.891,0.891,0.891,0.89,0.89,0.89,0.89,0.89,0.89,0.89,0.891,0.891,0.891,0.89,0.889,0.889,0.889,0.888,0.888,0.888,0.887,0.887,0.886,0.885,0.885,0.884,0.884,0.883,0.883,0.882,0.882,0.882,0.882,0.882,0.882,0.881,0.881,0.881,0.88,0.88,0.88,0.88,0.88,0.88,0.88,0.88,0.88,0.88,0.88,0.88,0.88,0.879,0.879,0.878,0.878,0.876,0.874,0.874,0.873,0.87,0.87,0.867,0.866,0.866,0.863,0.86,0.86,0.858,0.858,0.858,0.857,0.856,0.856,0.854,0.854,0.854,0.854,0.854,0.859,0.859,0.859,0,0,0,0,0,0,0,0,0,0,0,0,0,0,0,1.796,1.783,1.783,1.768,1.75,1.75,1.735,1.718,1.718,1.706,1.695,1.695,1.686,1.673,1.673,1.662,1.646,1.625,1.625,0,0,0,0,0,0,0,0,0,0,1.31,1.297,1.297,1.289,1.284,1.284,1.279,1.274,1.274,1.27,1.265,1.265,1.26,1.257,1.254,1.254,1.251,1.249,1.249,1.246,1.246,1.246,1.243,1.242,1.242,1.24,1.24,1.242,1.242,1.242,1.242,1.243,1.243,1.245,1.248,1.248,1.249,1.251,1.251,1.254,1.259,1.26,1.26,1.265,1.268,1.268,1.271,1.274,1.279,1.279,1.282,1.287,1.287,1.292,1.297,1.302,1.302,1.305,1.31,1.31,1.315
0.695,0.695,0.694,0.694,0.695,0.695,0,0,0,0,0.696,0.696,0.696,0,0,0.693,0.692,0.692,0.692,0.692,0,0.69,0.689,0.688,0.688,0.688,0.688,0.688,0.688,0.688,0.688,0.688,0.689,0.689,0.69,0.69,0.688,0.688,0.688,0.688,0.689,0.689,0.691,0.691,0.691,0.691,0,0,0,0,0,0,0,0,0,0,0,0,0,0,0,0,0.747,0.747,0.746,0.746,0.746,0.746,0.745,0.744,0.744,0.742,0.739,0.739,0.739,0,0,0.732,0.728,0.728,0.726,0.725,0.725,0.724,0.723,0.723,0.722,0.722,0.723,0.723,0.723,0.723,0.723,0.722,0.722,0.723,0.723,0,0,0,0,0,0,0,0,0,0,0,0,0,0,0,0,1.141,1.141,1.14,1.137,1.137,1.135,1.132,1.132,1.132,1.131,1.131,1.131,1.131,1.131,1.132,1.132,1.134,1.136,1.136,1.14,1.144,1.146,1.146,1.148,1.15,1.15,1.153,1.155,1.155,1.159,1.161,1.162,1.162,1.162,1.167,1.167,1.179,1.196,1.214,0,1.251,1.251,1.268,1.281,1.281,1.292,1.29,1.29,1.289,1.285,1.285,1.281,1.277,1.277,1.274,1.27,1.27,1.263,1.257,1.257,1.251,1.246,1.246,1.24,1.234,1.234,1.231,1.229,1.229,1.224,1.223,1.223,1.223,1.223,1.224,1.224,1.224,1.226,1.226,1.226,1.229,1.229,1.229,1.23,1.231,1.233,1.233,1.233,0,0,0,0,0,0,0,0,0,0,0,0,0,0,0,0,0.985,0.985,0.985,0.986,0.986,0.986,0.988,0.989,0.989,0.99,0.991,0.993,0.993,0.994,0.995,0.995,0.996,0.996,0.995,0.995,0.995,0.995,0.995,0.995,0.995,0.995,0.997,0.999,0.999,1.001,1.003,1.006,1.006,1.009,1.012,1.012,1.013,1.015,1.017,1.017,1.021,1.03,1.03,1.038,1.047,1.054,1.054,1.06,1.067,1.072,1.072,1.072,1.072,1.071,1.07,1.068,1.068,1.067,1.064,1.064,1.062,1.06,1.06,1.058,1.057,1.057,1.054,1.052,1.052,1.051,1.049,1.049,1.046,1.044,1.042,1.042,1.04,1.038,1.038,1.038,1.038,1.04,1.04,1.041,1.041,1.041,1.043,1.047,1.049,1.049,1.053,1.056,1.056,1.059,1.062,1.064,1.064,1.067,1.07,1.07,0,0,0,0,0,0,0,0,0,0,0,0,0,0,0,0,0,0,0,0,0,0,0,0,0,0,0,0,0,0,0,0,0,0,0,1.028,1.028,1.027,1.025,1.023,1.023,1.02,1.014,1.014,1.009,1.005,1.005,1.005,0.998,0.998,0.996,0.996,0.996,0.996,0.997,0.997,0.997,0.996,0.996,0.996,0.994,0.991,0.991,0.991,0,0,0,0,0,0,0,0,0,0,0.94,0.939,0.939,0.939,0.939,0.941,0.943,0.943,0.946,0.948,0.948,0.952,0.954,0.956,0.956,0.959,0.962,0.962,0,0,0,0,0,0,0,0,0,0,0,0,0,0,0,0,0,0,0,0,0,0,0,0,0,0,0,0.909,0.903,0.903,0.896,0.892,0.892,0.889,0.889,0.889,0.889,0.89,0.89,0.89,0.89,0.89,0.89,0.891,0.892,0.892,0.892,0.892,0.892,0.892,0.892,0.892,0.892,0.892,0.893,0.893,0.893,0.893,0.893,0.893,0.893,0.893,0.893,0.893,0.893,0.892,0.892,0.893,0.893,0.893,0.893,0.893,0.892,0.892,0.892,0.892,0.892,0.892,0.892,0.892,0.892,0.892,0.891,0.891,0.891,0.891,0.89,0.89,0.889,0.888,0.888,0.888,0.886,0.885,0.885,0.885,0.884,0.884,0.884,0.883,0.883,0.882,0.882,0.882,0.882,0.882,0.882,0.881,0.881,0.881,0.881,0.881,0.881,0.882,0.882,0.882,0.882,0.882,0.882,0.882,0.882,0.881,0.881,0.881,0.879,0.876,0.876,0.874,0.872,0.872,0.869,0.866,0.866,0.863,0.86,0.86,0.858,0.858,0.858,0.857,0.856,0.856,0.854,0.854,0.854,0.854,0.854,0,0,0,0,0,0,0,0,0,0,0,0,1.878,1.861,1.861,1.847,1.828,1.828,1.802,1.783,1.783,1.768,1.75,1.75,1.735,1.718,1.718,1.706,1.695,1.695,1.681,1.665,1.665,1.635,1.635,1.625,1.625,0,0,0,0,0,0,0,0,1.322,1.322,1.31,1.3,1.3,1.292,1.285,1.285,1.279,1.276,1.276,1.27,1.266,1.266,1.262,1.259,1.254,1.254,1.251,1.248,1.248,1.246,1.243,1.243,1.242,1.24,1.24,1.239,1.239,1.239,1.239,1.239,1.24,1.242,1.242,1.243,1.245,1.245,1.248,1.251,1.251,1.253,1.256,1.26,1.26,1.262,1.265,1.265,1.268,1.27,1.273,1.273,1.276,1.281,1.281,1.284,1.289,1.289,1.294,1.298,1.303,1.303,1.308
0.695,0.695,0.694,0.694,0.695,0.695,0.699,0.701,0,0,0.696,0.696,0.696,0.699,0.699,0.693,0.692,0.692,0.692,0.692,0.694,0.69,0.689,0.688,0.688,0.688,0.688,0.688,0.688,0.688,0.688,0.688,0.689,0.689,0.69,0.69,0.688,0.688,0.688,0.688,0.689,0.689,0.691,0.691,0.689,0.689,0,0,0,0,0,0,0,0,0,0,0,0,0,0,0,0,0.747,0.747,0.746,0.746,0.746,0.746,0.745,0.744,0.744,0.742,0.739,0.739,0.737,0.737,0,0.732,0.728,0.728,0.726,0.725,0.725,0.724,0.723,0.723,0.722,0.722,0.723,0.723,0.723,0.723,0.723,0.722,0.722,0.722,0.722,0.722,0.723,0.723,0.723,0.723,0.723,0,0,0,0,0,0,0,0,0,0,1.141,1.141,1.14,1.137,1.137,1.135,1.131,1.131,1.13,1.13,1.13,1.129,1.129,1.129,1.131,1.131,1.132,1.134,1.134,1.137,1.14,1.14,1.142,1.145,1.148,1.148,1.149,1.153,1.153,1.154,1.157,1.158,1.158,1.159,1.161,1.161,1.172,1.187,1.205,1.205,1.251,1.251,1.26,1.274,1.274,1.284,1.285,1.284,1.281,1.279,1.279,1.274,1.274,1.277,1.274,1.265,1.265,1.26,1.256,1.256,1.249,1.246,1.246,1.24,1.234,1.234,1.231,1.229,1.229,1.224,1.223,1.223,1.223,1.223,1.224,1.224,1.224,1.226,1.226,1.226,1.229,1.229,1.229,1.229,1.23,1.231,1.231,1.233,0,0,0,0,0,0,0,0,0,0,0,0,0,0,0.984,0.984,0.984,0.984,0.984,0.984,0.985,0.985,0.986,0.988,0.988,0.989,0.991,0.993,0.993,0.994,0.995,0.995,0.996,0.996,0.995,0.995,0.995,0.995,0.995,0.995,0.995,0.995,0.997,0.999,0.999,1.001,1.003,1.006,1.006,1.009,1.012,1.012,1.013,1.014,1.017,1.017,1.021,1.03,1.03,1.037,1.045,1.052,1.052,1.059,1.067,1.072,1.072,1.072,1.072,1.071,1.07,1.068,1.068,1.067,1.064,1.064,1.062,1.06,1.06,1.058,1.057,1.057,1.054,1.052,1.052,1.05,1.047,1.047,1.043,1.038,1.038,1.035,1.035,1.038,1.038,1.029,1.029,1.03,1.03,1.03,1.032,1.032,1.038,1.038,1.043,1.043,1.048,1.051,1.051,1.058,1.061,1.062,1.062,1.064,1.068,1.068,0,0,0,0,0,0,0,0,0,0,0,0,0,0,0,0,0,0,0,0,0,0,0,0,0,0,0,0,0,0,0,0,1.027,1.027,1.027,1.028,1.028,1.026,1.025,1.023,1.023,1.02,1.014,1.014,1.009,1.005,1.005,1.005,0.998,0.998,0.996,0.995,0.995,0.995,0.996,0.996,0.994,0.993,0.993,0.992,0.989,0.989,0.985,0.98,0.98,0.98,0,0,0,0,0,0.944,0.943,0.943,0.94,0.939,0.939,0.939,0.939,0.941,0.943,0.943,0.946,0.948,0.948,0.952,0.954,0.956,0.956,0.959,0.962,0.962,0,0,0,0,0,0,0,0,0,0,0,0,0,0,0,0,0,0,0,0,0,0,0,0,0,0,0,0.909,0.903,0.903,0.896,0.892,0.892,0.889,0.889,0.889,0.889,0.89,0.89,0.89,0.89,0.89,0.89,0.891,0.892,0.892,0.892,0.892,0.892,0.892,0.892,0.892,0.892,0.892,0.893,0.893,0.893,0.893,0.893,0.893,0.893,0.893,0.893,0.893,0.893,0.892,0.892,0.893,0.893,0.893,0.893,0.893,0.892,0.892,0.892,0.892,0.892,0.892,0.892,0.892,0.892,0.892,0.891,0.891,0.891,0.891,0.89,0.89,0.889,0.888,0.888,0.888,0.886,0.885,0.885,0.885,0.884,0.884,0.884,0.883,0.883,0.882,0.882,0.882,0.882,0.882,0.882,0.881,0.881,0.881,0.881,0.881,0.881,0.882,0.882,0.882,0.882,0.882,0.882,0.882,0.882,0.881,0.881,0.881,0.879,0.876,0.876,0.874,0.872,0.872,0.869,0.865,0.865,0.862,0.857,0.857,0.856,0.854,0.854,0.854,0.852,0.852,0.85,0.85,0.854,0.854,0.854,0,0,0,0,0,0,0,0,0,0,0,0,1.878,1.861,1.861,1.847,1.828,1.828,1.808,1.789,1.789,1.771,1.756,1.756,1.738,1.723,1.723,1.709,1.695,1.695,1.681,1.665,1.665,1.635,1.635,0,0,0,0,0,0,0,0,0,0,1.322,1.322,1.313,1.303,1.303,1.294,1.289,1.289,1.282,1.277,1.277,1.273,1.268,1.268,1.263,1.259,1.254,1.254,1.251,1.248,1.248,1.246,1.243,1.243,1.242,1.24,1.24,1.239,1.239,1.239,1.239,1.239,1.24,1.242,1.242,1.243,1.245,1.245,1.248,1.251,1.251,1.253,1.256,1.26,1.26,1.262,1.265,1.265,1.268,1.27,1.273,1.273,1.276,1.281,1.281,1.284,1.289,1.289,1.294,1.298,1.303,1.303,1.308
0.696,0.696,0.696,0.697,0.698,0.699,0.699,0.701,0.706,0.706,0.701,0.701,0.7,0.699,0.699,0.698,0.697,0.696,0.696,0.694,0.694,0.694,0.693,0.693,0.693,0.693,0.692,0.692,0.692,0.692,0.692,0.692,0.692,0.692,0.692,0.691,0.691,0.693,0.692,0.692,0.692,0.691,0.691,0.691,0.689,0.689,0,0,0,0,0,0,0,0,0,0,0,0,0,0,0,0,0,0,0.748,0.748,0.747,0.747,0.746,0.745,0.745,0.743,0.74,0.74,0.737,0.736,0.736,0.733,0.73,0.73,0.728,0.727,0.727,0.725,0.724,0.724,0.723,0.723,0.723,0.723,0.723,0.723,0.723,0.722,0.722,0.722,0.721,0.721,0.721,0.721,0.721,0.721,0.721,0.721,0,0,0,0,0,0,0,0,0,0,0,1.14,1.136,1.136,1.132,1.13,1.13,1.127,1.127,1.127,1.127,1.127,1.127,1.131,1.131,1.132,1.132,1.132,1.134,1.136,1.136,1.139,1.142,1.145,1.145,1.146,1.149,1.149,1.151,1.153,1.154,1.154,1.155,1.157,1.157,1.164,1.179,1.197,1.197,0,1.26,1.26,1.266,1.266,1.274,1.276,1.274,1.273,1.271,1.271,1.268,1.266,1.266,1.265,1.263,1.263,1.26,1.256,1.256,1.249,1.249,0,1.242,1.237,1.237,1.237,0,0,0,0,0,0,0,1.227,1.227,1.226,1.226,1.226,1.226,1.229,1.229,1.229,1.229,1.23,1.231,1.231,1.233,0,0,0,0,0,0,0,0,0,0,0,0,0.985,0.985,0.984,0.984,0.983,0.983,0.983,0.984,0.985,0.985,0.985,0.987,0.987,0.989,0.991,0.993,0.993,0.994,0.996,0.996,0.997,0.997,0.997,0.996,0.995,0.995,0.995,0.995,0.997,0.997,0.997,0.999,0.999,1,1.002,1.005,1.005,1.008,1.01,1.01,1.013,1.013,1.016,1.016,1.02,1.028,1.028,1.035,1.043,1.05,1.05,1.058,1.065,1.073,1.073,1.073,1.073,1.072,1.072,1.071,1.071,1.069,1.067,1.067,1.064,1.062,1.062,1.06,1.058,1.058,1.056,1.052,1.052,1.049,1.044,1.044,1.04,1.035,1.035,1.031,1.028,1.028,1.025,1.023,1.023,1.023,1.023,1.024,1.025,1.025,1.027,1.033,1.033,1.037,1.042,1.047,1.047,1.053,1.058,1.059,1.059,1.06,1.068,1.068,0,0,0,0,0,0,0,0,0,0,0,0,0,0,0,0,0,0,0,0,0,0,0,0,0,0,0,0,0,0,0,1.027,1.027,1.027,1.027,1.027,1.027,1.026,1.024,1.023,1.023,1.021,1.016,1.016,1.01,1.006,1.006,1.006,0.999,0.999,0.997,0.995,0.995,0.995,0.996,0.996,0.994,0.993,0.993,0.99,0.988,0.988,0.983,0.978,0.978,0.978,0,0,0,0.95,0.95,0.944,0.943,0.943,0.943,0.941,0.941,0.941,0.941,0.943,0.946,0.946,0.949,0.952,0.952,0.955,0.958,0.961,0.961,0.967,0,0,0,0,0,0,0,0,0,0,0,0,0,0,0,0,0,0,0,0,0,0,0,0,0.958,0.958,0,0,0,0,0.912,0.912,0.903,0.896,0.896,0.892,0.892,0.892,0.892,0.892,0.892,0.892,0.892,0.892,0.892,0.892,0.892,0.892,0.892,0.893,0.893,0.893,0.893,0.894,0.894,0.894,0.894,0.894,0.894,0.894,0.895,0.895,0.895,0.895,0.895,0.895,0.895,0.895,0.895,0.895,0.895,0.895,0.895,0.895,0.895,0.895,0.895,0.895,0.895,0.894,0.894,0.894,0.893,0.893,0.892,0.892,0.892,0.892,0.891,0.891,0.89,0.889,0.889,0.888,0.888,0.886,0.886,0.885,0.885,0.885,0.885,0.884,0.884,0.884,0.883,0.883,0.882,0.882,0.882,0.882,0.882,0.882,0.882,0.882,0.882,0.882,0.882,0.882,0.883,0.883,0.883,0.883,0.883,0.883,0.882,0.882,0.881,0.878,0.878,0.876,0.873,0.873,0.87,0.865,0.865,0.862,0.857,0.857,0.854,0.853,0.853,0.85,0.849,0.849,0.849,0.85,0,0,0,0,0,0,0,0,0,0,0,0,1.909,1.898,1.898,1.878,1.861,1.861,1.847,1.828,1.828,1.808,1.789,1.789,1.771,1.756,1.756,1.738,1.723,1.723,1.706,1.695,1.695,1.678,1.659,1.659,1.635,1.635,0,0,0,0,0,1.384,1.384,1.351,1.351,0,1.322,1.322,1.313,1.303,1.303,1.294,1.289,1.289,1.282,1.277,1.277,1.273,1.268,1.268,1.263,1.259,1.254,1.254,1.249,1.246,1.246,1.243,1.24,1.24,1.239,1.237,1.237,1.236,1.236,1.236,1.236,1.236,1.237,1.237,1.237,1.24,1.243,1.243,1.245,1.248,1.248,1.251,1.253,1.257,1.257,1.26,1.263,1.263,1.265,1.266,1.266,1.268,1.271,1.274,1.274,1.277,1.282,1.282,1.287,1.292,1.297,1.297,1.3
0.698,0.699,0.699,0.7,0.702,0.703,0.703,0.705,0.706,0.706,0.705,0.705,0.703,0.702,0.701,0.701,0.7,0.699,0.699,0.698,0.697,0.697,0.697,0.696,0.696,0.696,0.696,0.696,0.696,0.696,0.696,0.696,0.695,0.695,0.695,0.695,0.693,0.693,0.692,0.692,0.692,0.692,0.691,0.691,0.69,0.69,0,0,0,0,0,0,0,0,0,0,0,0,0,0,0,0,0,0,0,0.749,0.748,0.748,0.747,0.746,0.746,0.744,0.742,0.742,0.739,0.736,0.736,0.736,0.73,0.73,0.729,0.727,0.727,0.726,0.725,0.725,0.724,0.724,0.724,0.724,0.724,0.724,0.723,0.722,0.722,0.722,0.721,0.721,0.721,0.721,0.721,0.721,0.721,0.721,0,0,0,0,0,0,0,0,0,0,0,1.14,1.136,1.136,1.132,1.13,1.13,1.127,1.127,1.127,1.127,1.127,1.127,0,0,1.132,1.132,1.132,1.134,1.136,1.136,1.139,1.142,1.145,1.145,1.146,1.149,1.149,1.151,1.153,1.154,1.154,1.155,1.157,1.157,1.164,1.179,1.197,1.197,0,0,1.266,1.266,1.266,1.274,1.276,1.274,1.273,1.271,1.271,1.268,1.266,1.266,1.265,1.263,1.263,1.26,1.257,1.257,1.257,0,0,0,0,0,0,0,0,0,0,0,0,0,1.227,1.227,1.227,1.227,1.227,1.227,1.229,1.23,1.23,1.23,1.233,1.234,1.234,0,0,0,0,0,0,0,0,0,0,0,0,0,0.985,0.985,0.984,0.984,0.983,0.983,0.983,0.984,0.985,0.985,0.985,0.987,0.987,0.989,0.991,0.993,0.993,0.995,0.996,0.996,0.998,0.998,0.998,0.996,0.996,0.996,0.996,0.996,0.997,0.997,0.997,0.999,0.999,1,1.002,1.005,1.005,1.008,1.01,1.01,1.013,1.013,1.016,1.016,1.02,1.028,1.028,1.035,1.043,1.05,1.05,1.058,1.065,1.073,1.073,1.074,1.074,1.074,1.073,1.072,1.072,1.071,1.069,1.069,1.067,1.063,1.063,1.061,1.058,1.058,1.056,1.052,1.052,1.049,1.044,1.044,1.04,1.035,1.035,1.031,1.028,1.028,1.025,1.023,1.023,1.023,1.023,1.024,1.025,1.025,1.027,1.033,1.033,1.037,1.042,1.047,1.047,1.052,1.054,1.054,1.054,1.056,0,0,0,0,0,0,0,0,0,0,0,0,0,0,0,0,0,0,0,0,0,0,0,0,0,0,0,0,0,0,0,0,0,1.027,1.027,1.029,1.027,1.027,1.027,1.026,1.024,1.023,1.023,1.021,1.016,1.016,1.011,1.006,1.006,1.006,0.999,0.999,0.997,0.995,0.995,0.995,0.994,0.994,0.993,0.99,0.99,0.989,0.985,0.985,0.981,0.975,0.975,0.975,0.963,0.963,0.957,0.95,0.95,0.946,0.946,0.946,0.946,0.946,0.946,0.945,0.945,0.947,0.953,0.953,0.956,0.96,0.96,0.964,0.97,0.974,0.974,0,0,0,0,0,0,0,0,0,0,0,0,0,0,0,0,0,0,0,0,0,0,0,0,0,0.958,0.958,0.96,0.96,0,0,0,0,0,0.905,0.905,0.899,0.897,0.897,0.895,0.895,0.895,0.895,0.894,0.894,0.893,0.893,0.893,0.894,0.894,0.894,0.894,0.894,0.894,0.895,0.895,0.895,0.895,0.895,0.895,0.895,0.895,0.895,0.897,0.897,0.897,0.897,0.897,0.897,0.897,0.897,0.897,0.897,0.897,0.897,0.897,0.897,0.897,0.896,0.895,0.895,0.895,0.895,0.895,0.895,0.893,0.893,0.893,0.892,0.892,0.892,0.891,0.89,0.89,0.889,0.888,0.888,0.888,0.887,0.885,0.885,0.885,0.885,0.885,0.884,0.884,0.884,0.883,0.882,0.882,0.882,0.882,0.882,0.882,0.882,0.883,0.883,0.883,0.884,0.884,0.884,0.885,0.885,0.885,0.885,0.884,0.884,0.882,0.881,0.881,0.878,0.875,0.875,0.87,0.866,0.866,0.862,0.857,0.857,0.854,0.852,0.852,0.849,0.845,0.845,0.843,0.843,0,0.84,0.838,0.838,0.838,0,0,0,0,0,0,0,1.909,1.898,1.898,1.885,1.871,1.871,1.857,1.834,1.834,1.815,1.796,1.796,1.78,1.762,1.762,1.744,1.72,1.72,1.703,1.695,1.695,1.662,1.659,1.659,1.659,0,0,0,0,0,0,1.384,1.384,1.343,1.343,0,1.322,1.322,1.313,1.305,1.305,1.297,1.29,1.29,1.287,1.281,1.281,1.274,1.27,1.27,1.263,1.257,1.253,1.253,1.248,1.243,1.243,1.24,1.236,1.236,1.234,1.233,1.233,1.231,1.231,1.231,1.231,1.233,1.234,1.234,1.234,1.237,1.24,1.24,1.242,1.245,1.245,1.249,1.251,1.254,1.254,1.257,1.26,1.26,1.262,1.263,1.263,1.265,1.266,1.268,1.268,1.271,1.274,1.274,1.279,1.284,1.287,1.287,1.292
0.698,0.699,0.699,0.7,0.702,0.703,0.703,0.705,0.706,0.706,0.705,0.704,0.703,0.702,0.701,0.701,0.7,0.699,0.699,0.698,0.697,0.697,0.697,0.696,0.696,0.696,0.696,0.696,0.696,0.696,0.696,0.696,0.695,0.695,0.695,0.695,0.693,0.693,0.692,0.692,0.692,0.692,0.691,0.691,0.69,0.69,0,0,0,0,0,0,0,0,0,0,0,0,0,0,0,0,0,0,0,0.749,0.748,0.748,0.747,0.746,0.746,0.744,0.742,0.742,0.739,0.736,0.736,0.735,0.73,0.73,0.729,0.727,0.727,0.726,0.725,0.725,0.724,0.724,0.724,0.724,0.724,0.724,0.723,0.722,0.721,0.721,0.72,0.72,0.721,0.72,0.719,0.719,0.719,0.718,0.718,0.718,0,0,0,0,0,0,1.149,1.145,1.145,1.14,1.136,1.136,1.131,1.129,1.129,1.126,1.126,1.126,1.125,1.125,1.127,0,0,1.131,1.131,1.131,1.134,1.136,1.136,1.139,1.141,1.142,1.142,1.145,1.146,1.146,1.149,1.15,1.151,1.151,1.155,1.157,1.157,1.164,1.179,1.197,1.197,0,0,1.266,1.266,1.266,1.266,1.266,1.266,1.265,1.265,1.265,1.262,1.26,1.26,1.26,1.259,1.259,1.259,1.256,1.256,1.254,1.254,0,0,0,0,0,0,0,0,0,0,0,0,1.227,1.227,1.227,1.227,1.227,1.227,1.229,1.23,1.23,1.23,1.233,1.234,1.234,0,0,0,0,0,0,0,0,0,0,0,0,0,0.984,0.984,0.984,0.983,0.983,0.983,0.983,0.983,0.984,0.984,0.985,0.986,0.986,0.988,0.99,0.992,0.992,0.994,0.996,0.996,0.997,0.998,0.998,0.996,0.996,0.996,0.996,0.996,0.997,0.997,0.997,0.998,0.998,0.999,1.001,1.003,1.003,1.007,1.009,1.009,1.011,1.013,1.016,1.016,1.02,1.028,1.028,1.034,1.042,1.049,1.049,1.058,1.065,1.073,1.073,1.074,1.074,1.074,1.073,1.072,1.072,1.071,1.069,1.069,1.065,1.063,1.063,1.061,1.058,1.058,1.056,1.051,1.051,1.048,1.043,1.043,1.04,1.033,1.033,1.03,1.026,1.026,1.024,1.021,1.021,1.021,1.021,1.022,1.025,1.025,1.027,1.032,1.032,1.034,1.041,1.045,1.045,1.052,1.054,1.054,1.054,1.056,0,0,0,0,0,0,0,0,0,0,0,0,0,0,0,0,0,0,0,0,0,0,0,0,0,0,0,0,0,0,0,0,0,1.028,1.028,1.029,1.029,1.028,1.028,1.027,1.026,1.025,1.025,1.024,1.018,1.018,1.012,1.007,1.007,1.007,1,1,0.998,0.996,0.996,0.995,0.994,0.994,0.993,0.99,0.99,0.989,0.985,0.985,0.981,0.975,0.975,0.975,0.963,0.963,0.957,0.952,0.952,0.949,0.949,0.95,0.95,0.949,0.949,0.95,0.95,0.954,0.959,0.959,0.971,0.971,0.976,0.976,0.984,0,0,0,0,0,0,0,0,0,0,0,0,0,0,0,0,0,0,0,0,0,0,0,0,0,0,0,0,0.96,0.96,0.96,0,0,0,0,0,0.915,0.915,0.908,0.906,0.906,0.903,0.902,0.902,0.899,0.898,0.898,0.898,0.896,0.895,0.895,0.895,0.895,0.895,0.895,0.896,0.896,0.896,0.897,0.897,0.897,0.897,0.898,0.899,0.899,0.899,0.899,0.899,0.899,0.899,0.899,0.899,0.899,0.899,0.899,0.899,0.899,0.899,0.899,0.899,0.898,0.898,0.897,0.897,0.896,0.895,0.895,0.895,0.894,0.894,0.893,0.892,0.892,0.891,0.891,0.891,0.89,0.888,0.888,0.888,0.887,0.886,0.886,0.885,0.885,0.885,0.884,0.884,0.884,0.883,0.883,0.883,0.883,0.883,0.883,0.883,0.883,0.884,0.884,0.884,0.884,0.885,0.885,0.885,0.885,0.885,0.885,0.885,0.885,0.885,0.882,0.882,0.88,0.877,0.877,0.873,0.868,0.868,0.862,0.857,0.857,0.857,0.852,0.852,0.849,0.845,0.845,0.843,0.843,0,0.84,0.838,0.838,0.838,0,0,0,0,0,0,0,1.916,1.913,1.913,1.895,1.885,1.885,1.867,1.847,1.847,1.828,1.805,1.805,1.786,1.765,1.765,1.744,1.72,1.72,1.703,1.703,0,1.662,1.662,0,0,0,0,0,0,0,0,0,0,1.343,1.343,0,1.322,1.322,1.317,1.308,1.308,1.298,1.294,1.294,1.287,1.282,1.282,1.276,1.27,1.27,1.263,1.257,1.253,1.253,1.248,1.243,1.243,1.24,1.236,1.236,1.234,1.233,1.233,1.231,1.231,1.231,1.231,1.233,1.234,1.234,1.234,1.237,1.24,1.24,1.242,1.245,1.245,1.249,1.251,1.254,1.254,1.257,1.26,1.26,1.262,1.263,1.263,1.265,1.266,1.268,1.268,1.271,1.274,1.274,1.279,1.284,1.287,1.287,1.292
0.701,0.702,0.703,0.703,0.705,0.706,0.706,0.708,0.708,0.707,0.706,0.704,0.704,0.703,0.702,0.702,0.701,0.701,0,0.699,0.699,0.7,0.699,0.699,0.699,0.699,0.699,0.699,0.699,0.699,0.699,0.699,0.699,0.698,0.698,0.696,0.695,0.695,0.694,0.694,0.694,0.694,0.693,0.692,0.692,0.692,0,0,0,0,0,0,0,0,0,0,0,0,0,0,0,0,0,0,0,0.75,0.75,0.75,0.749,0.749,0.749,0.746,0.745,0.745,0.742,0.739,0.739,0.735,0.733,0.733,0.73,0.728,0.728,0.727,0.726,0.726,0.725,0.725,0.725,0.725,0.724,0.724,0.724,0.722,0.721,0.721,0.72,0.719,0.719,0.719,0.717,0.717,0.717,0.716,0.716,0.716,0,0,0,0,0,0,1.149,1.145,1.145,1.141,1.136,1.136,1.131,1.129,1.129,1.126,1.126,1.126,1.124,1.124,1.127,1.127,1.127,1.129,1.13,1.13,1.132,1.135,1.135,1.137,1.14,1.141,1.141,1.142,1.145,1.145,1.146,1.148,1.148,1.149,0,0,0,0,0,0,0,0,0,0,0,1.266,1.257,1.257,1.257,1.257,1.257,1.257,1.254,1.254,1.254,1.254,1.256,1.256,1.256,1.254,1.254,1.254,1.254,0,0,0,0,0,0,0,0,0,1.239,1.239,1.236,1.229,1.229,1.229,1.229,1.229,1.229,1.23,1.23,1.23,1.231,1.233,1.234,1.234,0,0,0,0,0,0,0,0,0,0,0,0,0,0.984,0.984,0.983,0.982,0.981,0.981,0.981,0.981,0.981,0.981,0.983,0.985,0.985,0.986,0.989,0.991,0.991,0.992,0.995,0.995,0.997,0.998,0.998,0.997,0.997,0.997,0.996,0.996,0.996,0.996,0.997,0.998,0.998,0.999,1,1.002,1.002,1.005,1.008,1.008,1.01,1.011,1.014,1.014,1.019,1.026,1.026,1.033,1.041,1.049,1.049,1.057,1.064,1.072,1.072,1.074,1.074,1.074,1.074,1.073,1.073,1.071,1.069,1.069,1.065,1.063,1.063,1.061,1.058,1.058,1.054,1.05,1.05,1.047,1.043,1.043,1.038,1.033,1.033,1.03,1.026,1.026,1.024,1.021,1.021,1.021,1.021,1.022,1.025,1.025,1.027,1.032,1.032,1.034,1.041,1.045,1.045,1.051,1.052,1.052,1.052,1.053,0,0,1.051,1.051,1.051,0,0,0,0,0,0,0,0,0,0,0,0,0,0,0,0,0,0,0,0,0,0,0,0,0,0,0,0,1.028,1.028,1.029,1.029,1.028,1.028,1.027,1.026,1.025,1.025,1.024,1.018,1.018,1.012,1.007,1.007,1.007,1,1,0.998,0.995,0.995,0.994,0.993,0.993,0.991,0.989,0.989,0.988,0.984,0.984,0.98,0.975,0.975,0.97,0.963,0.963,0.957,0.952,0.952,0.949,0.949,0.95,0.95,0.949,0.949,0.95,0.95,0.954,0.959,0.959,0.971,0.971,0.976,0.976,0.984,0,0,0,0,0,0,0,0,0,0,0,0,0,0,0,0,0,0,0,0,0,0,0,0,0,0,0,0,0.96,0.96,0.959,0.959,0,0,0,0,0.915,0.915,0.908,0.906,0.906,0.903,0.902,0.902,0.899,0.898,0.898,0.898,0.896,0.895,0.895,0.895,0.895,0.895,0.895,0.896,0.896,0.896,0.897,0.897,0.897,0.897,0.898,0.899,0.899,0.899,0.899,0.899,0.899,0.899,0.899,0.899,0.899,0.899,0.899,0.899,0.899,0.899,0.899,0.899,0.898,0.898,0.897,0.897,0.896,0.895,0.895,0.895,0.894,0.894,0.893,0.892,0.892,0.891,0.891,0.891,0.89,0.888,0.888,0.888,0.887,0.886,0.886,0.885,0.885,0.885,0.884,0.884,0.884,0.883,0.883,0.883,0.883,0.883,0.883,0.883,0.883,0.884,0.884,0.884,0.884,0.885,0.885,0.885,0.885,0.885,0.885,0.885,0.885,0.885,0.882,0.882,0.88,0.877,0.877,0.873,0.868,0.868,0.862,0.855,0.855,0.852,0.85,0.85,0.846,0.842,0.842,0.839,0.837,0.837,0.835,0.835,0.838,0.838,0,0,0,0,0,0,0,1.916,1.913,1.913,1.895,1.885,1.885,1.867,1.847,1.847,1.828,1.805,1.805,1.786,1.765,1.765,1.744,1.72,1.72,1.703,1.678,1.678,1.657,1.657,0,0,0,0,0,1.417,1.417,1.379,1.379,1.346,1.334,1.334,1.329,1.322,1.322,1.315,1.307,1.307,1.298,1.294,1.294,1.287,1.281,1.281,1.274,1.268,1.268,1.262,1.256,1.253,1.249,1.245,1.239,1.239,1.236,1.233,1.233,1.23,1.229,1.229,1.229,1.227,1.227,1.227,1.23,1.231,1.231,1.231,1.234,1.237,1.237,1.24,1.245,1.245,1.248,1.251,1.254,1.254,1.256,1.259,1.259,1.26,1.26,1.26,1.26,1.262,1.263,1.263,1.265,1.268,1.268,1.273,1.276,1.276,1.279,1.282
0.702,0.703,0.705,0.705,0.707,0.707,0.707,0.708,0.708,0.708,0.707,0.705,0.705,0.703,0.703,0.703,0.702,0.702,0,0.701,0.701,0.701,0.701,0.701,0.701,0.701,0.701,0.701,0.701,0.701,0.701,0.701,0.701,0,0,0.7,0.698,0.698,0.697,0.697,0.697,0,0,0,0,0,0,0,0,0,0,0,0,0,0,0,0,0,0,0,0,0,0,0,0,0.752,0.751,0.751,0.751,0.751,0.751,0.75,0.749,0.749,0.745,0.743,0.743,0.739,0.739,0,0.734,0.73,0.73,0.728,0.727,0.727,0.726,0.726,0.726,0.726,0.726,0.724,0.724,0.723,0.721,0.721,0.72,0.719,0.719,0.719,0.717,0.717,0.717,0.716,0.716,0.716,0,0,0,0,0,0,0,0,0,0,0,0,0,0,0,0,0,0,1.124,1.124,1.125,1.127,1.127,1.129,1.13,1.13,1.132,1.135,1.135,1.137,1.139,1.14,1.14,1.141,1.142,1.142,1.144,1.145,1.145,1.146,0,0,0,0,0,0,0,0,0,0,0,0,1.251,1.251,1.251,1.251,1.251,1.251,1.249,1.249,1.249,1.249,1.253,1.254,1.254,1.254,1.254,1.254,1.254,0,0,1.26,1.26,1.262,1.26,1.254,1.254,1.249,1.239,1.239,1.236,1.231,1.231,1.229,1.229,1.229,1.226,1.226,1.227,1.227,1.227,1.226,1.226,1.226,0,0,0,0,0,0,0,0,0,0,0,0,0,0.983,0.983,0.982,0.982,0.981,0.981,0.98,0.98,0.981,0.981,0.981,0.982,0.982,0.984,0.986,0.988,0.988,0.989,0.992,0.992,0.994,0.995,0.995,0.996,0.996,0.996,0.996,0.995,0.995,0.995,0.996,0.996,0.996,0.997,0.998,1,1,1.003,1.005,1.005,1.008,1.01,1.013,1.013,1.018,1.024,1.024,1.032,1.041,1.048,1.048,1.057,1.064,1.071,1.071,1.073,1.074,1.075,1.074,1.073,1.073,1.071,1.068,1.068,1.065,1.063,1.063,1.061,1.058,1.058,1.054,1.05,1.05,1.047,1.043,1.043,1.038,1.033,1.033,1.03,1.028,1.028,1.026,1.024,1.024,1.025,1.025,1.027,1.028,1.028,1.031,1.036,1.041,1.041,1.044,1.047,1.047,1.051,1.052,1.052,1.052,1.049,1.049,1.047,1.043,1.043,1.043,0,0,0,0,0,0,0,0,0,0,0,0,0,0,0,0,0,0,0,0,0,0,0,0,0,0,0,0,1.028,1.028,1.029,1.029,1.028,1.028,1.027,1.027,1.025,1.025,1.025,1.02,1.02,1.013,1.008,1.008,1.008,1,1,0.997,0.994,0.994,0.993,0.992,0.992,0.989,0.988,0.988,0.985,0.982,0.982,0.977,0.974,0.974,0.968,0.963,0.963,0.959,0.955,0.955,0.953,0.953,0.954,0.954,0.955,0.956,0.956,0.956,0.962,0.979,0,0,0,0,0,0,0,0,0,0,1.072,1.072,1.088,0,0,0,0,0,0,0,0,0,0,0,0,0,0,0,0,0,0,0,0,0,0.965,0.965,0.959,0.959,0,0,0.939,0.939,0.924,0.919,0.914,0.91,0.91,0.907,0.905,0.903,0.903,0.901,0.899,0.899,0.898,0.898,0.898,0.897,0.897,0.897,0.897,0.897,0.899,0.899,0.899,0.899,0.899,0.899,0.899,0.9,0.9,0.9,0.9,0.9,0.9,0.9,0.9,0.9,0.901,0.901,0.901,0.901,0.901,0.901,0.9,0.9,0.899,0.899,0.899,0.899,0.898,0.896,0.896,0.895,0.895,0.895,0.894,0.893,0.893,0.892,0.892,0.892,0.891,0.89,0.888,0.888,0.888,0.886,0.886,0.885,0.885,0.885,0.884,0.884,0.884,0.884,0.883,0.883,0.883,0.883,0.883,0.884,0.884,0.885,0.885,0.885,0.885,0.885,0.885,0.886,0.887,0.887,0.887,0.886,0.886,0.886,0.885,0.885,0.882,0.879,0.879,0.875,0.87,0.87,0.864,0.854,0.854,0.85,0.847,0.847,0.842,0.842,0.842,0.839,0.837,0.837,0.835,0.835,0,0,0,0,0,0,0,0,0,1.923,1.916,1.916,1.906,1.891,1.891,1.878,1.857,1.857,1.837,1.811,1.811,1.792,1.768,1.768,1.744,1.723,1.723,1.723,1.678,1.678,1.657,1.657,0,0,0,0,0,1.417,1.417,1.36,1.36,1.339,1.332,1.332,1.327,1.32,1.32,1.315,1.307,1.307,1.3,1.292,1.292,1.285,1.279,1.279,1.273,1.266,1.266,1.26,1.253,1.253,1.246,1.24,1.239,1.234,1.231,1.229,1.229,1.226,1.224,1.224,1.224,1.224,1.224,1.224,1.226,1.227,1.227,1.229,1.233,1.236,1.236,1.239,1.242,1.242,1.246,1.249,1.253,1.253,1.256,1.257,1.257,1.257,1.257,1.257,1.259,1.259,1.26,1.26,1.26,1.263,1.263,1.265,1.268,1.268,1.273,1.276
0.702,0.703,0.705,0.705,0.707,0.707,0.707,0.708,0.708,0.708,0.707,0.705,0.705,0.703,0.703,0.703,0.702,0.702,0.703,0.701,0.701,0.701,0.701,0.701,0.701,0.701,0.701,0.701,0.701,0.701,0.701,0.701,0.701,0,0,0.7,0.698,0.698,0.697,0.697,0.697,0,0,0,0,0,0,0,0,0,0,0,0,0,0,0,0,0,0,0,0,0,0,0,0,0.752,0.751,0.751,0.751,0.751,0.751,0.75,0.749,0.749,0.745,0.743,0.743,0.739,0.739,0.74,0.734,0.73,0.73,0.728,0.727,0.727,0.726,0.726,0.726,0.726,0.726,0.724,0.724,0.723,0.721,0.721,0.719,0.718,0.718,0.717,0.715,0.715,0.714,0.714,0.716,0.716,0,0,0,0,0,0,0,0,0,0,0,0,0,0,0,0,0,0,1.124,1.124,1.125,1.127,1.127,1.129,1.131,1.131,1.132,1.135,1.135,1.137,1.139,1.14,1.14,1.141,1.142,1.142,1.144,1.145,1.145,1.146,0,0,0,0,0,0,0,0,0,0,0,0,1.251,1.251,1.251,1.251,1.251,1.251,1.249,1.249,1.249,1.249,1.253,1.254,1.254,1.254,1.256,1.256,1.257,0,0,1.26,1.26,1.262,1.26,1.254,1.254,1.249,1.243,1.243,1.24,1.236,1.236,1.231,1.229,1.229,1.226,1.226,1.227,1.227,1.227,1.226,1.226,1.226,0,0,0,0,0,0,0,0,0,0,0,0,0,0.983,0.983,0.982,0.982,0.981,0.981,0.98,0.98,0.981,0.981,0.981,0.982,0.982,0.984,0.986,0.988,0.988,0.989,0.992,0.992,0.994,0.995,0.995,0.996,0.996,0.996,0.996,0.995,0.995,0.995,0.996,0.996,0.996,0.997,0.998,1,1,1.003,1.005,1.005,1.008,1.01,1.013,1.013,1.018,1.024,1.024,1.032,1.041,1.048,1.048,1.057,1.064,1.071,1.071,1.073,1.074,1.075,1.074,1.073,1.073,1.071,1.068,1.068,1.065,1.063,1.063,1.061,1.058,1.058,1.054,1.051,1.051,1.047,1.043,1.043,1.04,1.036,1.036,1.033,1.033,1.033,1.033,1.031,1.031,1.032,1.032,1.035,1.036,1.036,1.038,1.043,1.046,1.046,1.046,1.049,1.049,1.053,1.052,1.052,1.052,1.049,1.049,1.047,1.043,1.043,1.043,0,0,0,0,0,0,0,0,0,0,0,0,0,0,0,0,0,0,0,0,0,0,0,0,0,0,0,0,1.028,1.028,1.03,1.03,1.031,1.031,1.03,1.029,1.029,1.029,1.029,1.022,1.022,1.014,1.008,1.008,1.008,1,1,0.997,0.994,0.994,0.993,0.992,0.992,0.989,0.988,0.988,0.985,0.982,0.982,0.977,0.974,0.974,0.968,0.963,0.963,0.96,0.957,0.957,0.955,0.955,0.958,0.96,0.96,0.962,0.963,0.963,0.97,0.979,0,0,0,0,0,0,0,0,0,0,1.072,1.072,1.088,0,0,0,0,0,0,0,0,0,0,0,0,0,0,0,0,0,0,0,0,0,0,0,0.963,0.963,0,0,0.939,0.939,0.929,0.919,0.919,0.919,0.91,0.91,0.908,0.906,0.906,0.903,0.902,0.902,0.9,0.9,0.9,0.899,0.899,0.899,0.899,0.9,0.9,0.9,0.9,0.9,0.9,0.9,0.901,0.902,0.902,0.902,0.902,0.902,0.902,0.902,0.903,0.903,0.903,0.903,0.903,0.903,0.903,0.903,0.902,0.902,0.901,0.901,0.9,0.9,0.898,0.897,0.897,0.896,0.895,0.895,0.894,0.893,0.893,0.892,0.892,0.892,0.891,0.89,0.889,0.889,0.888,0.886,0.886,0.885,0.885,0.885,0.885,0.884,0.884,0.884,0.884,0.884,0.884,0.884,0.884,0.884,0.884,0.885,0.885,0.885,0.885,0.887,0.887,0.887,0.888,0.888,0.888,0.888,0.888,0.887,0.885,0.885,0.884,0.881,0.881,0.881,0,0,0.864,0.854,0.854,0.85,0.847,0.847,0.842,0.842,0,0,0,0,0,0,0,0,0,0,0,0,0,0,0,1.927,1.92,1.92,1.913,1.898,1.898,1.888,1.871,1.871,1.847,1.818,1.818,1.792,1.768,1.768,1.744,1.744,0,0,0,0,0,0,0,0,0,0,0,0,0,1.36,1.36,1.339,1.332,1.332,1.327,1.32,1.32,1.315,1.307,1.307,1.3,1.292,1.292,1.285,1.279,1.279,1.273,1.266,1.266,1.26,1.253,1.253,1.246,1.24,1.24,1.234,1.231,1.229,1.229,1.226,1.224,1.224,1.224,1.224,1.224,1.224,1.226,1.227,1.227,1.229,1.233,1.236,1.236,1.239,1.242,1.242,1.246,1.249,1.253,1.253,1.256,1.257,1.257,1.257,1.257,1.257,1.259,1.259,1.26,1.26,1.26,1.263,1.263,1.265,1.268,1.268,1.273,1.276
0.703,0.705,0.706,0.706,0.708,0.709,0.709,0.709,0.708,0.708,0.707,0.705,0.705,0.704,0.703,0.703,0.703,0.703,0.703,0.703,0.703,0.703,0.703,0.703,0.703,0.703,0.703,0.704,0.704,0.703,0.703,0.703,0.703,0.705,0.704,0.702,0.701,0.7,0.7,0.7,0.702,0.702,0.701,0.701,0,0,0,0,0,0,0,0,0,0,0,0,0,0,0,0,0,0,0,0,0,0.755,0.755,0.755,0.755,0.754,0.754,0.753,0.752,0.752,0.751,0.747,0.747,0.744,0.74,0.74,0.737,0.734,0.734,0.732,0.73,0.73,0.728,0.727,0.727,0.727,0.726,0.724,0.724,0.722,0.72,0.72,0.718,0.717,0.717,0.715,0.713,0.713,0.712,0.712,0,0,0,0,0,0,0,0,0,0,0,0,0,0,0,0,0,0,0,0,1.124,1.124,1.125,1.127,1.127,1.129,1.131,1.131,1.132,1.135,1.135,1.137,1.139,1.14,1.14,1.14,1.141,1.141,1.141,1.141,1.141,1.144,0,0,0,0,0,0,0,0,0,0,0,0,1.245,1.245,1.245,1.246,1.248,1.248,1.248,1.248,1.248,1.249,1.251,1.254,1.254,1.254,1.256,1.256,1.257,1.263,1.263,1.26,1.26,1.262,1.26,1.254,1.254,1.249,1.243,1.243,1.24,1.236,1.236,1.231,1.229,1.229,1.226,1.226,1.227,1.227,1.227,1.226,1.226,1.226,0,0,0,0,0,0,0,0,0,0,0,0,0,0.983,0.983,0.982,0.982,0.981,0.981,0.98,0.979,0.979,0.979,0.979,0.98,0.98,0.981,0.983,0.983,0.984,0.986,0.989,0.989,0.991,0.993,0.993,0.994,0.994,0.995,0.995,0.995,0.995,0.995,0.996,0.996,0.996,0.996,0.997,0.999,0.999,1.001,1.003,1.003,1.006,1.008,1.011,1.011,1.016,1.023,1.023,1.032,1.04,1.048,1.048,1.057,1.064,1.07,1.07,1.072,1.073,1.073,1.073,1.072,1.072,1.071,1.068,1.068,1.065,1.062,1.062,1.06,1.058,1.058,1.054,1.05,1.05,1.047,1.043,1.043,1.04,1.036,1.036,1.033,1.033,1.033,1.033,1.031,1.031,1.032,1.032,1.035,1.036,1.036,1.038,1.043,1.046,1.046,1.046,1.049,1.049,1.053,1.052,1.051,1.045,1.043,1.043,1.04,1.034,1.034,1.034,0,0,0,0,0,0,0,0,0,0,0,0,0,0,0,0,0,0,0,0,0,0,0,0,0,0,0,0,1.028,1.028,1.029,1.029,1.03,1.03,1.03,1.029,1.029,1.029,1.029,1.022,1.022,1.014,1.008,1.008,1.008,1,1,0.996,0.993,0.993,0.992,0.99,0.99,0.988,0.986,0.986,0.983,0.979,0.979,0.975,0.972,0.972,0.967,0.963,0.963,0.96,0.957,0.957,0.955,0.955,0.958,0.96,0.96,0.962,0.963,0.963,0.97,0.979,0,0,1.022,1.022,1.033,0,0,0,1.071,1.071,1.071,1.072,1.088,0,0,1.11,1.11,0,0,0,0,0,0,0,0,0,0,0,0,0,0,0,0,0,0,0,0.963,0.961,0.961,0.955,0.939,0.939,0.929,0.919,0.919,0.919,0.91,0.91,0.908,0.906,0.906,0.903,0.902,0.902,0.9,0.9,0.9,0.899,0.899,0.899,0.899,0.9,0.9,0.9,0.9,0.9,0.9,0.9,0.901,0.902,0.902,0.902,0.902,0.902,0.902,0.902,0.903,0.903,0.903,0.903,0.903,0.903,0.903,0.903,0.902,0.902,0.901,0.901,0.9,0.9,0.898,0.897,0.897,0.896,0.895,0.895,0.894,0.893,0.893,0.892,0.892,0.892,0.891,0.89,0.889,0.889,0.888,0.886,0.886,0.885,0.885,0.885,0.885,0.884,0.884,0.884,0.884,0.884,0.884,0.884,0.884,0.884,0.884,0.885,0.885,0.885,0.885,0.887,0.887,0.887,0.888,0.888,0.888,0.888,0.888,0.887,0.885,0.885,0.884,0.881,0.881,0.881,0,0,0.864,0.852,0.852,0.847,0.847,0.847,0.842,0.842,0,0,0,0,0,0,0,0,0,0,0,0,0,0,0,1.927,1.92,1.92,1.913,1.898,1.898,1.888,1.871,1.871,1.847,1.818,1.818,1.792,1.768,1.768,1.744,1.744,0,0,0,0,0,0,1.486,1.486,1.486,0,0,0,1.368,1.36,1.36,1.336,1.33,1.33,1.325,1.318,1.318,1.313,1.303,1.303,1.295,1.29,1.29,1.284,1.277,1.277,1.271,1.263,1.263,1.256,1.248,1.248,1.242,1.236,1.236,1.231,1.227,1.227,1.224,1.221,1.22,1.22,1.22,1.221,1.221,1.221,1.223,1.224,1.224,1.227,1.23,1.233,1.233,1.236,1.242,1.242,1.246,1.249,1.251,1.251,1.254,1.256,1.256,1.256,1.256,1.256,1.254,1.254,1.256,1.256,1.256,1.259,1.259,1.262,1.265,1.265,1.268,1.271
0.705,0.707,0.708,0.708,0.71,0.71,0.71,0.71,0.709,0.709,0.707,0.706,0.706,0.706,0.705,0.705,0.704,0.704,0.704,0.703,0.703,0.704,0.704,0.705,0.705,0.706,0.706,0.706,0.706,0.706,0.706,0.706,0.706,0.705,0.704,0.704,0.703,0.702,0.702,0.702,0.702,0.702,0.701,0.701,0,0,0,0,0,0,0,0,0,0,0,0,0,0,0,0,0,0,0,0,0,0,0.762,0.762,0.76,0.759,0.759,0.757,0.756,0.755,0.755,0.752,0.749,0.749,0.745,0.745,0,0.738,0.738,0.735,0.732,0.732,0.73,0.729,0.729,0.728,0.726,0.725,0.725,0.722,0.72,0.72,0.717,0.716,0.716,0.713,0.711,0.711,0.709,0.709,0,0,0,0,0,0,0,0,0,0,0,0,0,0,0,0,0,0,0,0,1.126,1.126,1.129,1.13,1.13,1.132,1.134,1.134,1.136,1.136,1.136,1.137,1.14,1.14,1.14,1.139,1.139,1.137,1.137,1.139,1.139,1.144,0,0,0,0,0,0,0,0,0,0,0,1.245,1.245,1.245,1.245,1.246,1.248,1.248,1.248,1.248,1.248,1.249,1.251,1.254,1.254,1.256,1.259,1.259,1.26,1.263,1.263,1.263,1.265,1.265,1.263,1.26,1.26,1.254,1.249,1.249,1.245,1.239,1.239,1.239,1.229,1.229,1.229,0,0,0,0,0,0,0,0,0,0,0,0,0,0,0,0,0,0,0,0,0.983,0.983,0.983,0.981,0.98,0.98,0.979,0.978,0.978,0.977,0.977,0.978,0.978,0.978,0.978,0.978,0.98,0.982,0.985,0.985,0.989,0.99,0.99,0.992,0.993,0.994,0.994,0.995,0.996,0.996,0.996,0.996,0.996,0.996,0.997,0.998,0.998,1,1.001,1.001,1.004,1.005,1.005,1.009,1.013,1.019,1.019,1.027,1.037,1.046,1.046,1.054,1.062,1.068,1.068,1.07,1.072,1.072,1.073,1.072,1.072,1.07,1.067,1.067,1.064,1.062,1.062,1.06,1.057,1.057,1.053,1.05,1.05,1.048,1.045,1.045,1.041,1.04,1.04,1.041,1.041,1.048,1.049,1.04,1.04,1.042,1.042,1.045,1.048,1.05,1.05,1.052,1.053,1.053,1.053,1.056,1.056,1.057,1.057,1.05,1.045,1.043,1.041,1.038,1.034,1.034,1.034,0,0,0,0,0,0,0,0,0,0,0,0,0,0,0,0,0,0,0,0,0,0,0,0,0,0,0,0,0,1.025,1.025,1.025,1.028,1.028,1.028,1.027,1.026,1.026,1.022,1.022,1.022,1.007,1.007,0,0,1,0.992,0.989,0.988,0.988,0.986,0.986,0.986,0.983,0.981,0.981,0.979,0.976,0.976,0.973,0.97,0.97,0.966,0.963,0.963,0.961,0.959,0.959,0.959,0.959,0.961,0.964,0.964,0.968,0.972,0.972,0.98,0.99,0,0,1.022,1.022,1.033,1.056,1.056,1.069,1.069,1.071,1.071,1.085,1.096,0,0,1.11,1.11,0,0,0,0,0,0,0,0,0,0,0,0,0,0,0,0,0,0,0,0,0.961,0.961,0.955,0.949,0.949,0.935,0.924,0.924,0.919,0.915,0.915,0.915,0.913,0.913,0.906,0.903,0.903,0.903,0.902,0.902,0.902,0.901,0.901,0.901,0.901,0.902,0.902,0.901,0.901,0.902,0.902,0.902,0.903,0.903,0.903,0.903,0.903,0.903,0.903,0.903,0.903,0.904,0.904,0.904,0.904,0.904,0.904,0.903,0.902,0.902,0.902,0.901,0.901,0.899,0.898,0.898,0.896,0.896,0.896,0.895,0.894,0.894,0.893,0.892,0.892,0.892,0.891,0.889,0.889,0.888,0.886,0.886,0.885,0.885,0.885,0.885,0.885,0.885,0.884,0.884,0.884,0.884,0.884,0.885,0.885,0.885,0.885,0.887,0.887,0.888,0.888,0.888,0.888,0.889,0.89,0.89,0.889,0.889,0.888,0.888,0.888,0.886,0.882,0.882,0.88,0.88,0,0,0.852,0.852,0.847,0.847,0,0,0,0,0,0,0,0,0,0,0,0,0,0,0,0,0,0,1.934,1.927,1.927,1.92,1.906,1.906,1.895,1.878,1.878,1.854,1.821,1.821,1.799,1.771,1.771,1.744,1.712,1.712,1.689,1.689,1.583,1.583,0,1.486,1.428,1.428,0,1.364,1.364,1.364,1.339,1.339,1.33,1.327,1.327,1.322,1.317,1.317,1.308,1.302,1.302,1.294,1.287,1.287,1.281,1.274,1.274,1.266,1.259,1.259,1.251,1.243,1.243,1.237,1.231,1.231,1.227,1.224,1.224,1.221,1.218,1.217,1.217,1.217,1.217,1.22,1.22,1.22,1.221,1.221,1.223,1.226,1.23,1.23,1.234,1.24,1.24,1.243,1.246,1.249,1.249,1.253,1.254,1.254,1.254,1.254,1.254,1.253,1.253,1.253,1.254,1.256,1.256,1.256,1.257,1.262,1.262,1.263,1.265
0.706,0.708,0.709,0.709,0.71,0.711,0.711,0.711,0.709,0.709,0.708,0.707,0.707,0.706,0.705,0.705,0.705,0.705,0.705,0.705,0.705,0.706,0.706,0.706,0.707,0.707,0.707,0.708,0.708,0.708,0.708,0.708,0.708,0.707,0.706,0.706,0.705,0.704,0.704,0.704,0.704,0.704,0.704,0,0,0,0,0,0,0,0,0,0,0,0,0,0,0,0,0,0,0,0,0,0,0,0.767,0.765,0.765,0.762,0.761,0.761,0.76,0.759,0.759,0.756,0.754,0.754,0.75,0.75,0,0,0.738,0.738,0.734,0.734,0.732,0.729,0.729,0.728,0.727,0.725,0.725,0.722,0.72,0.72,0.717,0.716,0.716,0.713,0.711,0.711,0.709,0.709,0,0,0,0,0,0,0,0,0,0,0,0,0,0,0,0,0,0,0,0,0,0,0,0,0,0,0,0,0,0,0,1.14,1.14,1.14,1.14,1.139,1.139,1.137,1.137,1.139,1.139,0,0,0,0,0,0,0,0,0,0,0,0,1.245,1.245,1.245,1.245,1.246,1.248,1.248,1.248,1.248,1.248,1.251,1.253,1.256,1.256,1.26,1.262,1.262,1.265,1.266,1.266,1.266,1.268,1.268,1.266,1.262,1.262,1.259,1.254,1.254,1.249,1.245,1.245,1.245,0,0,0,0,0,0,0,0,0,0,0,0,0,0,0,0,0,0,0,0,0,0,0,0.983,0.983,0.983,0.981,0.98,0.98,0.979,0.978,0.978,0.977,0.977,0.978,0.978,0.978,0.978,0.978,0.98,0.982,0.985,0.985,0.989,0.99,0.99,0.992,0.993,0.994,0.994,0.995,0.996,0.996,0.996,0.997,0.997,0.997,0.997,0.998,0.998,1,1.001,1.001,1.004,1.005,1.005,1.009,1.013,1.019,1.019,1.027,1.037,1.046,1.046,1.054,1.062,1.068,1.068,1.07,1.072,1.072,1.073,1.072,1.072,1.07,1.067,1.067,1.064,1.062,1.062,1.06,1.057,1.057,1.053,1.051,1.051,1.048,1.047,1.047,1.045,1.045,1.045,1.047,1.047,1.048,1.049,1.047,1.047,1.05,1.05,1.054,1.058,1.06,1.06,1.061,1.061,1.06,1.06,1.061,1.061,1.059,1.059,1.05,1.046,1.046,1.041,1.038,1.034,1.034,1.034,0,0,0,0,0,0,0,0,0,0,0,0,0,0,0,0,0,0,0,0,0,0,0,0,0,0,0,0,0,1.025,1.025,1.025,1.028,1.028,1.028,1.027,1.026,1.026,1.022,1.022,0,1.007,1.007,0,0,0,0.992,0.989,0.988,0.988,0.986,0.986,0.986,0.983,0.981,0.981,0.979,0.976,0.976,0.973,0.97,0.97,0.966,0.963,0.963,0.962,0.961,0.961,0.961,0.962,0.965,0.971,0.971,0.975,0.981,0.99,0.99,1.001,0,0,0,0,1.056,1.056,1.056,1.069,1.069,1.078,1.078,1.088,0,0,0,0,0,0,0,0,0,0,0,0,0,0,0,0,0,0,0,0,0,0,0,0,0,0,0,0.957,0.949,0.949,0.941,0.929,0.929,0.924,0.92,0.92,0.916,0.913,0.913,0.91,0.907,0.907,0.905,0.905,0,0.903,0.903,0.903,0.903,0.903,0.903,0.903,0.903,0.902,0.902,0.902,0.903,0.903,0.903,0.903,0.904,0.904,0.904,0.904,0.905,0.905,0.905,0.905,0.905,0.906,0.906,0.905,0.905,0.904,0.904,0.903,0.902,0.902,0.899,0.898,0.898,0.896,0.896,0.896,0.895,0.894,0.894,0.893,0.892,0.892,0.892,0.892,0.89,0.89,0.888,0.887,0.887,0.885,0.885,0.885,0.885,0.885,0.885,0.884,0.884,0.884,0.884,0.884,0.885,0.886,0.886,0.888,0.888,0.888,0.888,0.89,0.891,0.891,0.892,0.892,0.892,0.892,0.892,0.892,0.89,0.89,0.888,0.888,0,0.88,0.88,0,0,0,0,0,0,0,0,0,0,0,0,0,0,0,0,0,0,0,0,0,0,0,0,1.945,1.938,1.938,1.927,1.916,1.916,1.906,1.878,1.878,1.854,1.824,1.824,1.824,1.771,1.771,1.771,1.712,1.712,1.689,1.689,1.583,1.583,0,0,1.428,1.428,0,1.364,1.364,1.364,1.339,1.339,1.33,1.327,1.327,1.322,1.317,1.317,1.308,1.302,1.302,1.294,1.287,1.287,1.281,1.274,1.274,1.266,1.259,1.259,1.251,1.243,1.243,1.237,1.231,1.231,1.227,1.224,1.224,1.221,1.218,1.217,1.217,1.217,1.217,1.22,1.22,1.22,1.221,1.221,1.221,1.223,1.227,1.227,1.231,1.236,1.236,1.24,1.245,1.245,1.246,1.251,1.253,1.253,1.253,1.253,1.253,1.253,1.253,1.253,1.253,1.253,1.253,1.253,1.256,1.257,1.257,1.259,1.26
0.705,0.707,0.708,0.708,0.71,0.71,0.71,0.71,0.709,0.709,0.708,0.707,0.707,0.706,0.705,0.705,0.705,0.705,0.705,0.705,0.705,0.706,0.706,0.706,0.707,0.707,0.707,0.708,0.708,0.708,0.708,0.708,0.708,0.707,0.706,0.706,0.705,0.704,0.704,0.704,0.704,0.704,0.704,0,0,0,0,0,0,0,0,0,0,0,0,0,0,0,0,0,0,0,0,0,0,0,0.767,0.765,0.765,0.762,0.761,0.761,0.76,0.759,0.759,0.756,0.754,0.754,0.75,0.75,0,0.746,0.738,0.738,0.734,0.734,0.732,0.729,0.729,0.728,0.727,0.725,0.725,0.722,0.719,0.719,0.717,0.715,0.715,0.712,0.711,0.709,0.708,0.706,0.706,0.706,0.704,0.704,0.704,0,0,0,0,0,0,0,0,0,0,0,0,0,0,0,0,0,0,0,0,0.914,0.914,0.913,0.913,0.913,0.912,0.912,0.912,0.912,1.14,1.139,1.139,1.137,1.137,1.139,1.139,0,0,0,0,0,0,0,0,0,0,0,0,1.245,1.245,1.245,1.245,1.246,1.248,1.248,1.248,1.248,1.248,1.251,1.253,1.256,1.256,1.26,1.262,1.262,1.265,1.266,1.266,1.266,1.268,1.268,1.266,1.262,1.262,1.259,1.254,1.254,1.249,1.245,1.245,1.243,1.243,0,0,0,0,0,0,0,0,0,0,0,0,0,0,0,0,0,0,0,0,0,0,0.982,0.982,0.981,0.981,0.979,0.979,0.978,0.976,0.976,0.975,0.975,0.975,0.975,0.974,0.974,0.974,0.975,0.976,0.981,0.981,0.984,0.987,0.987,0.989,0.991,0.993,0.993,0.995,0.996,0.996,0.996,0.997,0.997,0.997,0.997,0.998,0.998,0.999,1,1,1.001,1.001,1.001,1.003,1.007,1.012,1.012,1.021,1.03,1.041,1.041,1.05,1.059,1.064,1.064,1.069,1.072,1.072,1.073,1.072,1.072,1.07,1.067,1.067,1.064,1.062,1.062,1.06,1.057,1.057,1.053,1.051,1.051,1.048,1.047,1.047,1.045,1.045,1.045,1.047,1.047,1.048,1.049,1.047,1.047,1.05,1.05,1.054,1.058,1.06,1.06,1.061,1.061,1.06,1.06,1.061,1.061,1.059,1.059,1.05,1.046,1.046,1.041,1.038,1.034,1.034,1.034,0,0,0,0,0,0,0,0,0,0,0,0,0,0,0,0,0,0,0,0,0,0,0,0,0,0,0,0,0,1.025,1.025,1.02,1.02,1.028,1.028,1.022,1.022,1.018,1.018,1.022,1.006,1.006,1.007,0,0,0,0.985,0.982,0.982,0.98,0.98,0.98,0.981,0.979,0.978,0.978,0.976,0.974,0.974,0.973,0.97,0.97,0.966,0.963,0.963,0.962,0.961,0.961,0.961,0.962,0.965,0.971,0.971,0.975,0.981,0.99,0.99,1.001,1.023,1.042,1.042,1.042,1.052,1.056,1.056,1.069,1.069,1.078,1.078,1.088,1.096,1.103,1.103,1.107,1.113,1.115,1.115,0,0,1.119,1.119,1.129,0,0,0,0,0,0,0,0,0,0,0,0,0,0,0,0.957,0.949,0.949,0.941,0.929,0.929,0.924,0.92,0.92,0.916,0.913,0.913,0.91,0.907,0.907,0.905,0.905,0.907,0.903,0.903,0.903,0.903,0.903,0.903,0.903,0.903,0.902,0.902,0.902,0.903,0.903,0.903,0.903,0.904,0.904,0.904,0.904,0.905,0.905,0.905,0.905,0.905,0.906,0.906,0.905,0.905,0.904,0.904,0.903,0.902,0.902,0.899,0.898,0.898,0.896,0.896,0.896,0.895,0.894,0.894,0.893,0.892,0.892,0.892,0.892,0.89,0.89,0.888,0.887,0.887,0.885,0.885,0.885,0.885,0.885,0.885,0.884,0.884,0.884,0.884,0.884,0.885,0.886,0.886,0.888,0.888,0.888,0.888,0.89,0.891,0.891,0.892,0.892,0.892,0.892,0.892,0.892,0.89,0.89,0.888,0.888,0,0.88,0.88,0,0,0,0,0,0,0,0,0,0,0,0,0,0,0,0,1.081,1.081,1.081,0,0,0,0,0,1.949,1.942,1.942,1.931,1.92,1.92,1.909,1.885,1.885,1.885,0,0,0,0,0,0,0,0,0,0,0,0,0,0,0,0,0,1.348,1.348,1.341,1.337,1.337,1.329,1.325,1.325,1.32,1.313,1.313,1.307,1.298,1.298,1.29,1.282,1.282,1.276,1.268,1.268,1.26,1.253,1.253,1.246,1.24,1.24,1.234,1.23,1.23,1.224,1.22,1.22,1.218,1.215,1.215,1.215,1.215,1.215,1.215,1.215,1.217,1.218,1.218,1.221,1.223,1.227,1.227,1.231,1.236,1.236,1.24,1.245,1.245,1.246,1.251,1.253,1.253,1.253,1.253,1.253,1.253,1.253,1.253,1.253,1.253,1.253,1.253,1.256,1.257,1.257,1.259,1.26
0.704,0.705,0.706,0.706,0.707,0.708,0.708,0.708,0.708,0.708,0.707,0.706,0.706,0.706,0.706,0.706,0.705,0.705,0.705,0.705,0.706,0.706,0.707,0.707,0.708,0.708,0.708,0.708,0.709,0.709,0.709,0.709,0.709,0.708,0.707,0.707,0.706,0.705,0.705,0.705,0.705,0.706,0.706,0,0,0,0,0,0,0,0,0,0,0,0,0,0,0,0,0,0,0,0,0,0,0,0.772,0.769,0.769,0.766,0.764,0.764,0.763,0.762,0.762,0.76,0.757,0.757,0.755,0.755,0.755,0.746,0.741,0.741,0.737,0.734,0.734,0.731,0.729,0.729,0.727,0.725,0.725,0.722,0.719,0.719,0.716,0.715,0.714,0.711,0.711,0.707,0.706,0.706,0.704,0.703,0.703,0.703,0.703,0,0,0,0,0,0,0,0,0,0,0,0,0,0,0,0,0,0,0,0.916,0.914,0.914,0.913,0.913,0.913,0.912,0.912,0.912,0.912,0.916,0.916,0,0,0,0,0,0,0,0,0,0,0,0,0,0,0,0,0,1.257,1.253,1.253,1.251,1.249,1.249,1.248,1.248,1.249,1.249,1.251,1.256,1.259,1.259,1.263,1.268,1.268,1.268,1.27,1.27,1.27,1.271,1.271,1.27,1.265,1.265,1.262,1.257,1.257,1.254,1.249,1.249,1.243,1.243,1.249,1.243,1.243,1.24,1.24,1.237,1.237,0,0,0,0,0,0,0,0,0,0,0,0,0,0,0,0.982,0.982,0.981,0.978,0.978,0.976,0.976,0.974,0.974,0.974,0.973,0.973,0.972,0.971,0.971,0.971,0.972,0.973,0.973,0.975,0.979,0.983,0.983,0.986,0.989,0.991,0.991,0.994,0.996,0.996,0.997,0.997,0.997,0.997,0.997,0.998,0.998,0.998,0.998,0.998,0.999,0.999,0.999,1,1.003,1.006,1.006,1.021,1.03,1.033,1.033,1.045,1.053,1.06,1.06,1.067,1.071,1.071,1.073,1.072,1.072,1.07,1.068,1.068,1.065,1.062,1.062,1.061,1.058,1.058,1.056,1.052,1.052,1.051,1.05,1.05,1.05,1.05,1.052,1.056,1.056,1.057,1.058,1.058,1.058,1.061,1.065,1.065,1.069,1.069,1.068,1.068,1.068,1.067,1.065,1.065,1.065,1.06,1.06,1.051,1.047,1.047,0,0,0,0,0,0,0,0,0,0,0,0,0,0,0,0,0,0,0,0,0,0,0,0,0,0,0,0,0,0.973,0.973,0.973,0,0,0,0,1.02,1.02,0,1.019,1.018,1.018,1.014,1.01,1.01,1.003,1.003,0,0,0,0,0.98,0.978,0.978,0.977,0.977,0.977,0.977,0.976,0.976,0.976,0.975,0.974,0.974,0.973,0.97,0.97,0.967,0.965,0.965,0.964,0.963,0.963,0.963,0.966,0.971,0.977,0.977,0.984,0.99,1,1,1.012,1.023,1.042,1.042,1.042,1.052,1.061,1.061,1.069,1.073,1.08,1.08,1.089,1.096,1.103,1.103,1.107,1.112,1.115,1.115,1.119,1.119,1.119,1.119,1.129,1.145,1.145,0,0,0,0,0,0,0,0,0,0,0,0,0,0,0,0,0,0,0,0,0,0,0,0,0,0,0.911,0.911,0.909,0.907,0.907,0.906,0.904,0.904,0.904,0.904,0.903,0.903,0.903,0.903,0.903,0.903,0.903,0.904,0.904,0.905,0.905,0.906,0.905,0.905,0.907,0.907,0.907,0.907,0.907,0.907,0.907,0.907,0.907,0.905,0.905,0.904,0.902,0.902,0.9,0.898,0.898,0.897,0.896,0.896,0.895,0.893,0.893,0.892,0.892,0.892,0.892,0.892,0,0,0,0,0,0.886,0.885,0.885,0.885,0.885,0.885,0.884,0.884,0.884,0.884,0.884,0.885,0.886,0.886,0.888,0.888,0.888,0.889,0.891,0.892,0.892,0.892,0.893,0.893,0.893,0.893,0.892,0.892,0.892,0.891,0.891,0,0,1.057,1.057,1.057,1.06,0,1.065,1.065,1.068,1.071,1.071,1.074,1.075,1.075,1.077,1.077,1.078,1.078,1.078,1.078,1.078,1.078,0,0,0,0,1.949,1.942,1.942,1.931,1.92,1.92,1.906,1.885,1.885,1.885,0,0,0,0,0,0,0,1.568,1.568,1.568,0,0,0,0,0,0,0,1.343,1.343,1.336,1.332,1.332,1.325,1.322,1.322,1.315,1.308,1.308,1.302,1.294,1.294,1.285,1.277,1.277,1.27,1.263,1.263,1.256,1.248,1.248,1.242,1.236,1.236,1.23,1.226,1.226,1.223,1.22,1.22,1.217,1.215,1.214,1.214,1.214,1.214,1.215,1.215,1.217,1.217,1.217,1.218,1.221,1.221,1.224,1.23,1.234,1.234,1.239,1.243,1.243,1.246,1.251,1.253,1.253,1.253,1.253,1.253,1.253,1.253,1.253,1.253,1.253,1.253,1.253,1.256,1.257,1.257,1.259,1.26
0.704,0.705,0.706,0.706,0.707,0.708,0.708,0.708,0.708,0.708,0.707,0.706,0.706,0.706,0.706,0.706,0.705,0.705,0.705,0.705,0.706,0.706,0.707,0.707,0.708,0.708,0.708,0.708,0.709,0.709,0.709,0.709,0.709,0.708,0.707,0.707,0.706,0.705,0.705,0.705,0.705,0,0,0,0,0,0,0,0,0,0,0,0,0,0,0,0,0,0,0,0,0,0,0,0,0,0.776,0.772,0.772,0.769,0.767,0.767,0.765,0.765,0.766,0.764,0.761,0.761,0.759,0.755,0.755,0.75,0.744,0.744,0.739,0.736,0.736,0.733,0.729,0.729,0.727,0.725,0.725,0.722,0.719,0.719,0.716,0.716,0.714,0.711,0.711,0.707,0.706,0.706,0.704,0.703,0.703,0.703,0.703,0,0,0,0,0,0,0,0,0,0,0,0,0,0,0,0,0,0,0,0.916,0.915,0.915,0.915,0.915,0.915,0.915,0.915,0.915,0.916,0.916,0.916,0,0,0,0,0,0,0,0,0,0,0,0,0,0,0,0,0,1.274,1.266,1.266,1.263,1.259,1.259,1.256,1.256,1.256,1.256,1.257,1.259,1.265,1.265,1.268,1.271,1.271,1.273,1.273,1.273,1.273,1.273,1.273,1.271,1.268,1.268,1.265,1.262,1.262,1.259,1.257,1.257,1.254,1.249,1.249,1.243,1.243,1.24,1.24,1.237,1.237,0,0,0,0,0,0,0,0,0,0,0,0,0,0,0,0,0,0,0.978,0.978,0.976,0.976,0.974,0.974,0.974,0.973,0.973,0.972,0.971,0.971,0.971,0.972,0.973,0.973,0.975,0.979,0.983,0.983,0.986,0.989,0.991,0.991,0.994,0.996,0.996,0.997,0.997,0.997,0.997,0.997,0.998,0.998,0.998,0.998,0.998,0.999,0.999,0.999,1,1.003,1.006,1.006,0,1.033,1.033,1.033,1.045,1.053,1.06,1.06,1.067,1.071,1.071,1.074,1.073,1.073,1.071,1.068,1.068,1.067,1.063,1.063,1.061,1.059,1.059,1.057,1.056,1.056,1.056,1.056,1.056,1.058,1.058,1.06,1.063,1.063,1.067,1.069,1.07,1.07,1.073,1.077,1.077,1.079,1.079,1.079,1.078,1.078,0,0,0,0,0,0,0,0,0,0,0,0,0,0,0,0,0,0,0,0,0,0,0,0,0,0,0,0,0,0,0,0,0,0,0,0,0,0,0.973,0.973,0.973,0,0,0,0,0,0,0,1.019,1.018,1.018,1.014,1.01,1.01,1.003,1.003,0,0,0,0,0.98,0.978,0.978,0.977,0.977,0.977,0.977,0.976,0.976,0.976,0.975,0.974,0.974,0.974,0.972,0.972,0.971,0.969,0.969,0.968,0.968,0.968,0.972,0.972,0.977,0.984,0.984,0.99,0.998,1.009,1.009,1.02,1.029,1.046,1.046,1.046,1.053,1.061,1.061,1.069,1.074,1.081,1.081,1.089,1.096,1.103,1.103,1.108,1.112,1.115,1.115,1.119,1.119,1.119,1.119,1.131,1.145,1.145,0,0,0,0,1.226,1.226,1.226,1.224,1.223,1.22,1.22,1.218,1.215,1.215,1.214,1.213,1.213,1.211,1.21,1.21,1.208,1.207,1.207,1.207,0,0,0,0,0,0.911,0.911,0.911,0.907,0.907,0.906,0.905,0.904,0.904,0.903,0.903,0.903,0.903,0.905,0.905,0.905,0.907,0.907,0.907,0.907,0.908,0.909,0.909,0.91,0.91,0.91,0.91,0.91,0.909,0.908,0.907,0.907,0.905,0.905,0,0,0,0,0,0,0,0,0.893,0.893,0.892,0.892,1.139,1.139,1.136,1.135,1.135,0,0,0,0,0,0,0,0,0,0,0,0.885,0.885,0.885,0.885,0.886,0.886,0.888,0.888,0.888,0.89,0.892,0.893,0.893,0.894,0.894,0.894,0.894,0.894,0.894,0.894,0.894,0,0,1.052,1.052,1.054,1.057,1.057,1.06,1.062,1.062,1.065,1.068,1.071,1.071,1.072,1.074,1.074,1.074,1.075,1.075,1.075,1.075,1.075,1.075,1.075,1.075,1.075,1.075,0,0,1.945,1.945,1.938,1.927,1.927,1.906,1.885,1.885,1.885,0,0,0,0,0,0,0,1.568,1.568,1.568,0,0,0,0,0,0,0,1.337,1.337,1.332,1.329,1.329,1.322,1.318,1.318,1.312,1.305,1.305,1.297,1.289,1.289,1.281,1.273,1.273,1.265,1.259,1.259,1.251,1.243,1.243,1.237,1.233,1.233,1.229,1.223,1.223,1.22,1.218,1.218,1.215,1.215,1.214,1.214,1.214,1.214,1.214,1.214,1.214,1.215,1.215,1.218,1.221,1.221,1.224,1.23,1.234,1.234,1.239,1.243,1.243,1.246,0,0,0,0,1.57,1.57,1.254,1.254,1.254,1.254,1.254,1.256,1.256,1.257,1.257,1.257,0,0
0.703,0.703,0.704,0.704,0.704,0.705,0.705,0.706,0.706,0.705,0.705,0.705,0.705,0.705,0.705,0.705,0.705,0.705,0.705,0.705,0.705,0.706,0.707,0.707,0.707,0.708,0.708,0.708,0.708,0.708,0.708,0.708,0.708,0.707,0.706,0.706,0.705,0.705,0.705,0.705,0.705,0,0,0,0,0,0,0,0,0,0,0,0,0,0,0,0,0.805,0.804,0.804,0.799,0.794,0.794,0.789,0.783,0.783,0.776,0.772,0.772,0.769,0.767,0.767,0.765,0.765,0.766,0.764,0.761,0.761,0.759,0.755,0.755,0.75,0.744,0.744,0.739,0.736,0.736,0.733,0.729,0.729,0.727,0.725,0.725,0.722,0.719,0.719,0.716,0.716,0.712,0.71,0.71,0.706,0.705,0.705,0.703,0.703,0.702,0.702,0.702,0,0,0,0,0,0,0,0,0,0,0,0.924,0.924,0.923,0.92,0.92,0.919,0.919,0,0.916,0.915,0.915,0.915,0.915,0.915,0.915,0.915,0.915,0.916,0.916,0.916,0.919,0.919,0.919,0,0,0,0,0,0,0,0,0,0,0,0,0,0,1.274,1.266,1.266,1.263,1.259,1.259,1.256,1.256,1.256,1.256,1.257,1.259,1.265,1.265,1.268,1.271,1.271,1.273,1.273,1.273,1.273,1.273,1.273,1.271,1.268,1.268,1.265,1.262,1.262,1.259,1.257,1.257,1.254,1.249,1.249,1.243,1.243,1.24,1.24,1.237,1.237,0,0,0,0,0,0,0,0,0,0,0,0,0,0,0,0,0,0,0.978,0.978,0.975,0.974,0.973,0.973,0.971,0.97,0.97,0.968,0.967,0.967,0.967,0.967,0.969,0.969,0.972,0.975,0.979,0.979,0.983,0.987,0.987,0.99,0.993,0.996,0.996,0.997,0.997,0.997,0.997,0.997,0.998,0.997,0.997,0.997,0.997,0.996,0.996,0.996,0.997,0.999,0.999,1.001,0,1.028,1.028,1.028,1.04,1.049,1.058,1.058,1.064,1.07,1.07,1.074,1.073,1.073,1.071,1.068,1.068,1.067,1.063,1.063,1.061,1.059,1.059,1.057,1.056,1.056,1.056,1.056,1.056,1.058,1.058,1.06,1.063,1.063,1.067,1.069,1.07,1.07,1.073,1.077,1.077,1.079,1.079,1.079,1.078,1.078,1.082,1.082,0,0,0,0,0,1.047,1.045,1.045,1.044,1.04,1.04,1.04,0,0,0,0,0,0,0,0,0,0,0,0,0,0,0,0,0,0,0,0,0,0,0,0,0.973,0.973,0.973,0,0,0,0,0,0,0,1.019,1.014,1.014,1.01,1.006,1.006,0.999,0.999,0,0,0,0,0.98,0.975,0.975,0.975,0.975,0.976,0.976,0.976,0.976,0.976,0.975,0.974,0.974,0.974,0.972,0.972,0.971,0.969,0.969,0.968,0.968,0.968,0.972,0.972,0.977,0.984,0.984,0.99,0.998,1.009,1.009,1.02,1.029,1.043,1.046,1.046,1.053,1.061,1.061,1.068,1.072,1.079,1.079,1.087,1.094,1.1,1.1,1.106,1.11,1.114,1.114,1.116,1.118,1.118,1.119,1.131,0,0,0,0,0,0,1.226,1.226,1.226,1.224,1.223,1.22,1.22,1.218,1.215,1.215,1.214,1.213,1.213,1.211,1.21,1.21,1.208,1.207,1.207,1.207,0,0,0,0,0,0.911,0.911,0.911,0.907,0.907,0.906,0.905,0.904,0.904,0.903,0.903,0.903,0.903,0.905,0.905,0.905,0.907,0.907,0.907,0.907,0.908,0.909,0.909,0.91,0.91,0.91,0.91,0.91,0.909,0.908,0.907,0.907,0.905,0.905,0,0,0,0,0,0,0,0,0.893,0.893,0.892,0.892,1.139,1.139,1.136,1.135,1.135,0,0,0,0,0,0,0,0,0,0,0,0,0,0,0,0,0,0.89,0.89,0.89,0.891,0.892,0.893,0.893,0.895,0.895,0.895,0.895,0.895,0.895,0.895,0,0,0,1.052,1.052,1.054,1.059,1.059,1.061,1.062,1.062,1.065,1.069,1.071,1.071,1.072,1.074,1.074,1.074,1.075,1.075,1.075,1.075,1.075,1.075,1.075,1.075,1.075,1.075,0,0,0,0,0,1.934,1.934,1.913,1.885,1.885,1.885,0,0,0,0,0,0,0,0,0,0,0,0,0,0,0,0,0,1.337,1.337,1.332,1.329,1.329,1.322,1.318,1.318,1.312,1.305,1.305,1.297,1.289,1.289,1.281,1.273,1.273,1.265,1.259,1.259,1.251,1.243,1.243,1.237,1.233,1.233,1.229,1.223,1.223,1.22,1.218,1.218,1.215,1.215,1.215,1.214,1.214,1.214,1.214,1.214,1.214,1.215,1.215,1.218,0,0,0,0,0,0,0,0,0,0,0,0,0,0,1.57,1.57,0,0,0,0,0,0,0,0,0,0,0,0
0.701,0.701,0.701,0.701,0.702,0.702,0.702,0.702,0.703,0.703,0.703,0.703,0.703,0.703,0.704,0.704,0.704,0.705,0.705,0.705,0.705,0.706,0.707,0.707,0.707,0.708,0.708,0.708,0.708,0.708,0.708,0.708,0.708,0.707,0.706,0.706,0.705,0.705,0.705,0.705,0,0,0,0,0,0,0,0,0,0,0,0,0,0,0,0,0,0.804,0.803,0.801,0.799,0.794,0.794,0.789,0.783,0.783,0.779,0.776,0.776,0.772,0.77,0.77,0.768,0.768,0.768,0.766,0.764,0.764,0.762,0.759,0.759,0.758,0.758,0,0.743,0.738,0.738,0.734,0.73,0.73,0.728,0.725,0.725,0.722,0.719,0.719,0.716,0.716,0.712,0.71,0.71,0.706,0.705,0.705,0.703,0.703,0.702,0.702,0.702,0,0,0,0,0,0,0,0,0,0,0.925,0.924,0.924,0.923,0.92,0.92,0.919,0.919,0.919,0.917,0.917,0.917,0.916,0.916,0.916,0.916,0.916,0.917,0.918,0.918,0.918,0.919,0.919,0.919,0.919,0.919,0.919,0,0,0,0,1.353,1.353,1.353,1.334,1.334,1.334,1.322,1.3,1.29,1.29,1.285,1.277,1.273,1.273,1.271,1.271,1.271,1.271,1.271,1.274,1.274,1.276,1.279,1.277,1.277,1.277,1.277,1.277,1.277,1.277,1.276,1.273,1.273,1.27,1.266,1.266,1.265,1.265,1.263,1.263,1.259,1.256,1.256,1.256,1.253,1.253,1.248,1.248,0,0,0,0,0,0,0,0,0,0,0,0,0,0,0,0,0,0,0,0,0.974,0.974,0.972,0.972,0.97,0.968,0.968,0.966,0.964,0.964,0.964,0.964,0.965,0.965,0.968,0.972,0.975,0.975,0.98,0.985,0.985,0.989,0.993,0.996,0.996,0.998,0.998,0.998,0.997,0.997,0.998,0.997,0.997,0.997,0.996,0.995,0.995,0.995,0.995,0.996,0.996,0.999,1.003,1.013,1.013,1.025,1.036,1.046,1.046,1.056,1.063,1.07,1.07,1.075,1.074,1.074,1.073,1.07,1.07,1.068,1.065,1.065,1.064,1.063,1.063,1.062,1.062,1.063,1.064,1.064,1.068,1.071,1.071,1.074,1.079,1.082,1.082,1.085,1.087,1.087,1.089,1.091,1.091,1.091,1.089,1.089,1.087,1.082,1.082,1.082,0,0,1.065,1.056,1.056,1.047,1.045,1.045,1.044,1.04,1.04,1.04,0,0,0,0,0,0,0,0,0,0,0,0,0,0,0,0,0,0,0,0,0,0,0.926,0.926,0.934,0.934,0.943,0.965,0.965,0.965,0.974,0,1.001,1.001,1.001,1.014,1.014,1.003,0.998,0.998,0.994,0.989,0.989,0.984,0.979,0.979,0.976,0.974,0.974,0.974,0.974,0.974,0.974,0.976,0.976,0.976,0.976,0.976,0.977,0.976,0.975,0.975,0.974,0.974,0.974,0.973,0.973,0.974,0.978,0.978,0.984,0.99,0.997,0.997,1.006,1.016,1.027,1.027,1.035,1.043,1.048,1.048,1.054,1.061,1.061,1.068,1.072,1.079,1.079,1.085,1.091,1.097,1.097,1.103,1.109,1.113,1.113,1.115,1.116,1.116,1.119,1.131,0,0,0,1.201,1.201,1.217,1.217,1.223,1.223,1.223,1.22,1.22,1.218,1.215,1.214,1.214,1.213,1.211,1.211,1.21,1.208,1.208,1.208,1.205,1.205,1.204,1.204,0,0,0,0,0,0,0,0,0,0,0,0,0,0,0,0,0,0.907,0.907,0.907,0.907,0.907,0.909,0.909,0.909,0.91,0.91,0.911,0.911,0.911,0.911,0.91,0.91,0.909,0.907,0.907,0.907,1.142,1.142,1.142,1.146,1.146,1.146,1.145,1.144,1.144,1.142,1.14,1.14,1.139,1.137,1.137,1.136,1.134,1.134,1.134,1.134,0,0,0,0,0,0,0,0,0,0,0,0,0,0,0,0.89,0.89,0.89,0.891,0.892,0.893,0.893,0.895,0.895,0.895,0.895,0.895,0.895,0.895,0,0,0,1.052,1.052,1.054,1.058,1.058,1.061,1.062,1.062,1.065,1.068,1.07,1.07,1.072,1.073,1.073,1.073,1.073,1.073,1.072,1.071,1.071,1.07,1.07,1.071,1.071,1.071,0,0,0,0,0,1.934,1.934,1.913,1.885,1.885,1.885,0,0,0,0,0,0,0,0,0,0,0,0,0,0,1.343,1.343,1.336,1.332,1.332,1.327,1.324,1.324,1.318,1.315,1.315,1.307,1.3,1.3,1.292,1.284,1.284,1.274,1.268,1.268,1.26,1.253,1.253,1.245,1.239,1.239,1.233,1.229,1.229,1.224,1.221,1.221,1.218,1.215,1.215,1.215,1.214,1.214,1.214,1.213,1.213,1.214,1.214,1.214,1.215,1.215,1.218,1.592,1.587,1.585,1.585,1.583,1.58,1.58,1.578,1.575,1.575,1.575,1.573,1.573,1.575,1.57,1.57,1.57,1.57,0,0,0,0,0,0,0,0,0,0
0.701,0.701,0.701,0.701,0.702,0.702,0.702,0.702,0.703,0.703,0.703,0.703,0.703,0.703,0.704,0.704,0.704,0.705,0.705,0.705,0.706,0.707,0.707,0.707,0.708,0.708,0.708,0.708,0.708,0.708,0.708,0.708,0.708,0.707,0.706,0.706,0.705,0.705,0,0,0,0,0,0,0,0,0,0,0,0,0,0,0,0,0,0,0,0.804,0.803,0.801,0.801,0.796,0.796,0.791,0.791,0,0.782,0.779,0.779,0.775,0.772,0.772,0.77,0.769,0.769,0.768,0.766,0.766,0.765,0.762,0.762,0.758,0.758,0,0,0.742,0.742,0.736,0.733,0.733,0.729,0.725,0.725,0.722,0.719,0.719,0.716,0.716,0.713,0.71,0.71,0.706,0.705,0.705,0.703,0.703,0.702,0.702,0.702,0,0,0,0,0,0,0,0,0,0,0.925,0.924,0.924,0.923,0.92,0.92,0.919,0.919,0.919,0.918,0.918,0.918,0.918,0.918,0.918,0.918,0.918,0.919,0.919,0.919,0.919,0.919,0.919,0.919,0.919,0.919,0.919,0,0,0,1.369,1.353,1.353,1.353,1.334,1.334,1.334,1.322,1.322,1.312,1.312,0,1.298,1.294,1.294,1.29,1.287,1.287,1.284,1.284,1.284,1.284,1.284,1.282,1.282,1.282,1.282,1.282,1.281,1.279,1.279,1.279,1.276,1.276,1.274,1.271,1.271,1.27,1.27,1.268,1.268,1.266,1.263,1.263,1.263,1.263,1.265,1.263,1.263,0,0,0,0,0,0,0,0,0,0,0,0,0,0,0,0,0,0,0,0,0.974,0.974,0.972,0.972,0.97,0.968,0.968,0.966,0.964,0.964,0.964,0.963,0.963,0.963,0.966,0.97,0.974,0.974,0.978,0.982,0.982,0.987,0.991,0.995,0.995,0.997,0.998,0.998,0.997,0.997,0.997,0.997,0.996,0.996,0.996,0.995,0.995,0.994,0.994,0.996,0.996,0.997,1.002,1.011,1.011,1.022,1.033,1.043,1.043,1.053,1.062,1.069,1.069,1.075,1.075,1.075,1.075,1.073,1.073,1.071,1.07,1.07,1.069,1.069,1.069,1.069,1.07,1.071,1.074,1.074,1.078,1.081,1.081,1.085,1.088,1.091,1.091,1.094,1.096,1.096,1.1,1.101,1.101,1.1,1.096,1.096,1.094,1.087,1.087,1.081,1.073,1.073,1.065,1.056,1.056,1.048,1.046,1.046,1.044,1.041,1.041,1.041,0,0,0,0,0,0,0,0,0,0,0,0,0,0,0,0,0,0,0,0,0,0.916,0.916,0.921,0.921,0.926,0.933,0.94,0.94,0.947,0.956,0.968,0.978,0.978,0.982,0.989,0.989,0.991,0.99,0.99,0.99,0.984,0.984,0.981,0.977,0.977,0.976,0.974,0.974,0.974,0.974,0.974,0.974,0.976,0.976,0.977,0.977,0.978,0.98,0.98,0.98,0.98,0.98,0.979,0.979,0.98,0.98,0.982,0.988,0.988,0.992,0.998,1.007,1.007,1.016,1.025,1.033,1.033,1.04,1.045,1.051,1.051,1.056,1.061,1.061,1.068,1.073,1.079,1.079,1.085,1.091,1.096,1.096,1.103,1.109,1.112,1.112,1.115,1.116,1.116,1.119,1.131,0,0,0,1.201,1.201,1.215,1.215,1.221,1.221,1.221,1.22,1.22,1.218,1.215,1.214,1.214,1.213,1.211,1.211,1.208,1.207,1.207,1.204,1.204,1.204,1.203,1.201,1.201,1.2,1.2,0,0,0,0,0,0,0,0,0,0,0,0,0,0,0,0,0.908,0.908,0.908,0.91,0.91,0.91,0.911,0.911,0.911,0.912,0.911,0.911,0.912,0,0,1.139,1.139,1.139,1.14,1.142,1.142,1.146,1.146,1.146,1.145,1.144,1.144,1.142,1.14,1.14,1.139,1.137,1.137,1.136,1.134,1.132,1.132,1.132,1.131,1.131,1.13,1.13,1.13,1.13,1.129,1.129,1.129,1.129,0,0,0,0,0,0.892,0.892,0.892,0.892,0.894,0.895,0.895,0.895,0.896,0.896,0.897,0.897,0.897,0.897,1.057,1.056,1.056,1.056,1.056,1.056,1.058,1.058,1.061,1.063,1.063,1.067,1.068,1.07,1.07,1.071,1.072,1.071,1.07,1.07,1.07,1.069,1.068,1.068,1.068,1.065,1.065,1.064,1.064,0,0,0,0,0,0,0,0,0,0,0,0,0,0,0,0,0,0,0,0,0,0,0,0,1.341,1.337,1.337,1.332,1.327,1.327,1.324,1.32,1.32,1.317,1.312,1.312,1.305,1.297,1.297,1.289,1.281,1.281,1.271,1.263,1.263,1.256,1.248,1.248,1.24,1.234,1.234,1.23,1.226,1.226,1.223,1.22,1.22,1.218,1.215,1.215,1.215,1.214,1.214,1.213,1.213,1.213,1.214,1.214,1.217,1.605,1.6,1.592,1.592,1.587,1.585,1.585,1.583,1.58,1.58,1.578,1.575,1.575,1.575,1.573,1.573,1.575,1.573,1.57,1.57,1.568,1.566,1.566,1.563,1.561,1.561,1.561,0,0,0,0
0.698,0.698,0.698,0.698,0.698,0.699,0.699,0.699,0.7,0.7,0.7,0.701,0.701,0.702,0.702,0.704,0.704,0.705,0.705,0.705,0.706,0.707,0.707,0.707,0.708,0.708,0.708,0.708,0.708,0.708,0.708,0.708,0.708,0.707,0.706,0.706,0.705,0.705,0,0,0,0,0,0,0,0,0,0,0,0,0,0,0,0,0.803,0.803,0.804,0.803,0.802,0.801,0.801,0.796,0.796,0.791,0.789,0.789,0.782,0.779,0.779,0.775,0.772,0.772,0.77,0.769,0.769,0.768,0.766,0.766,0.765,0.762,0.762,0.758,0.756,0.756,0.751,0.742,0.742,0.736,0.733,0.733,0.729,0.725,0.725,0.722,0.719,0.719,0.716,0.716,0.713,0.709,0.709,0.706,0.705,0.705,0.703,0.703,0.702,0.702,0.702,0,0,0,0,0,0,0,0,0,0.926,0.925,0.924,0.924,0.923,0.92,0.92,0.919,0.919,0.919,0.918,0.918,0.918,0.918,0.918,0.918,0.918,0.918,0.919,0.919,0.919,0.919,0.919,0.919,0.919,0.919,0.919,0.919,0.919,0,0,1.369,1.362,1.362,1.353,1.35,1.35,1.346,1.337,1.337,1.337,0,0,0,1.31,1.31,1.303,1.3,1.3,1.294,1.292,1.292,1.29,1.287,1.284,1.284,1.284,1.282,1.282,1.282,1.282,1.282,1.281,1.279,1.279,1.277,1.276,1.274,1.274,1.274,1.273,1.273,1.27,1.266,1.266,1.266,0,0,0,0,0,0,0,0,0,0,0,0,0,0,0,0,0,0,0,0,0,0,0,0,0.974,0.972,0.971,0.971,0.969,0.967,0.967,0.965,0.963,0.963,0.963,0.963,0.963,0.963,0.966,0.97,0.974,0.974,0.978,0.982,0.982,0.987,0.991,0.995,0.995,0.997,0.998,0.998,0.997,0.997,0.997,0.997,0.996,0.996,0.996,0.995,0.995,0.994,0.994,0.996,0.996,0.997,1.002,1.011,1.011,1.022,1.033,1.043,1.043,1.053,1.062,1.069,1.069,1.075,1.078,1.078,1.078,1.075,1.075,1.075,1.074,1.074,1.074,1.074,1.075,1.077,1.077,1.079,1.081,1.081,1.086,1.089,1.091,1.091,1.095,1.097,1.097,1.1,1.102,1.102,1.103,1.103,1.103,1.101,1.097,1.097,1.094,1.089,1.089,1.081,1.073,1.073,1.065,1.056,1.056,1.049,1.048,1.048,1.046,1.043,1.043,1.043,0,0,0,0,0,0,0,0,0,0,0,0,0,0,0,0,0,0,0,0,0,0.916,0.916,0.921,0.921,0.926,0.933,0.94,0.94,0.947,0.956,0.968,0.978,0.978,0.982,0.989,0.989,0.991,0.99,0.99,0.99,0.984,0.984,0.981,0.977,0.977,0.976,0.974,0.974,0.974,0.975,0.975,0.975,0.976,0.978,0.979,0.979,0.981,0.983,0.983,0.983,0.984,0.985,0.985,0.987,0.989,0.989,0.99,0.996,0.996,1.001,1.007,1.015,1.015,1.023,1.031,1.04,1.04,1.045,1.049,1.053,1.053,1.058,1.061,1.061,1.068,1.073,1.079,1.079,1.085,1.091,1.096,1.096,1.103,1.109,1.112,1.112,1.115,1.118,1.118,1.119,1.134,0,0,0,1.201,1.201,1.215,1.215,1.221,1.221,1.221,1.22,1.22,1.218,1.215,1.214,1.214,1.213,1.211,1.211,1.208,1.207,1.207,1.204,1.204,1.204,1.203,1.201,1.201,1.2,1.2,0,0,0,0,0,0,0,0,0,0,0,0,0,0,0,0,0.908,0.908,0.91,0.911,0.911,0.911,0.912,0.912,0.913,0.914,0.914,0.914,0.914,0,0,1.139,1.139,1.139,1.14,1.142,1.142,1.146,1.146,1.146,1.145,1.145,1.145,1.142,1.141,1.141,1.14,1.137,1.137,1.136,1.134,1.132,1.132,1.132,1.131,1.131,1.13,1.13,1.13,1.13,1.129,1.129,1.129,1.129,0,0,0,0,0,0,0,0,0,0,0,0,0,0,0.898,0.898,0,0,0,1.057,1.056,1.056,1.056,1.056,1.057,1.06,1.06,1.062,1.064,1.064,1.067,1.069,1.07,1.07,1.071,1.072,1.071,1.07,1.07,1.07,1.069,1.068,1.068,1.068,1.065,1.065,1.064,1.064,0,0,0,0,0,0,0,0,0,0,0,0,0,0,0,0,0,0,0,0,0,0,0,0,1.341,1.337,1.337,1.332,1.327,1.327,1.324,1.32,1.32,1.317,1.312,1.312,1.305,1.297,1.297,1.289,1.281,1.281,1.271,1.263,1.263,1.256,1.248,1.248,1.24,1.234,1.234,1.23,1.226,1.226,1.223,1.22,1.22,1.218,1.215,1.215,1.215,1.215,1.215,1.213,1.213,1.214,0,0,1.605,1.605,1.6,1.595,1.595,1.59,1.587,1.587,1.583,1.583,1.583,1.58,1.578,1.578,1.575,1.575,1.575,1.575,1.573,1.57,1.57,1.568,1.566,1.566,1.563,1.561,1.561,1.561,0,0,0,0
0.696,0.696,0.696,0.696,0.696,0.696,0.696,0.697,0.697,0.697,0.698,0.699,0.699,0.7,0.702,0.703,0.703,0.705,0.706,0.706,0.707,0.707,0.708,0.708,0.708,0.708,0.708,0.708,0.709,0.709,0.708,0.708,0.708,0.707,0.706,0.706,0.706,0,0,0,0,0,0,0,0,0,0,0,0,0,0,0,0.801,0.801,0.801,0.802,0.803,0.802,0.802,0.801,0.801,0.797,0.795,0.794,0.789,0.789,0,0.78,0.78,0.777,0.773,0.773,0.771,0.77,0.77,0.769,0.769,0.767,0.767,0.765,0.764,0.761,0.756,0.756,0.751,0.745,0.745,0.739,0.735,0.735,0.73,0.726,0.726,0.722,0.719,0.719,0.716,0.716,0.712,0.709,0.709,0.706,0.705,0.705,0.704,0.703,0.703,0.703,0.703,0,0,0,0,0,0,0.924,0.924,0.924,0.924,0.925,0.924,0.924,0.923,0.921,0.921,0.92,0.919,0.919,0.919,0.919,0.919,0.919,0.919,0.919,0.919,0.919,0.919,0.92,0.92,0.92,0.921,0.921,0.919,0.919,0.919,0.919,0.919,1.364,1.364,1.364,1.362,1.362,1.353,1.35,1.35,1.346,1.337,1.337,1.337,1.341,1.341,1.341,1.31,1.31,1.303,1.3,1.3,1.294,1.292,1.292,1.29,1.287,1.284,1.284,1.284,1.282,1.282,1.282,1.282,1.282,1.281,1.279,1.279,1.277,1.276,1.274,1.274,1.274,1.273,1.273,1.27,1.266,1.266,1.266,1.268,1.27,1.27,0,0,0,0,0,0,0,0,0,0,0,0,0,0,0,0,0,0,0,0,0,0,0.972,0.971,0.971,0.969,0.966,0.966,0.964,0.963,0.963,0.962,0.962,0.963,0.963,0.965,0.968,0.972,0.972,0.976,0.98,0.98,0.986,0.99,0.994,0.994,0.997,0.997,0.997,0.997,0.997,0.997,0.997,0.996,0.996,0.996,0.995,0.995,0.994,0.994,0.996,0.996,0.997,1.002,1.011,1.011,1.021,1.032,1.043,1.043,1.052,1.061,1.069,1.069,1.075,1.078,1.078,1.078,1.075,1.075,1.075,1.074,1.074,1.074,1.074,1.075,1.077,1.077,1.079,1.081,1.081,1.086,1.089,1.091,1.091,1.095,1.097,1.097,1.1,1.102,1.102,1.103,1.102,1.102,1.098,1.095,1.095,1.091,1.087,1.087,1.079,1.072,1.072,1.064,1.056,1.056,1.049,1.048,1.048,1.046,1.043,1.043,1.043,0,0,0,0,0,0,0,0,0,0,0,0,0,0,0,0.902,0.902,0.902,0.906,0.909,0,0.915,0.915,0.919,0.919,0.924,0.933,0.934,0.934,0.941,0.947,0.955,0.955,0.964,0.973,0.978,0.978,0.982,0.983,0.985,0.983,0.983,0.984,0.981,0.977,0.977,0.976,0.974,0.974,0.974,0.975,0.975,0.975,0.976,0.978,0.979,0.979,0.981,0.983,0.983,0.983,0.984,0.985,0.985,0.987,0.989,0.989,0.99,0.996,0.996,1.001,1.007,1.015,1.015,1.023,1.031,1.04,1.04,1.045,1.049,1.053,1.053,1.058,1.061,1.061,1.068,1.073,1.079,1.079,1.085,1.09,1.096,1.096,1.102,1.108,1.112,1.112,1.115,1.118,1.118,1.119,1.134,1.155,1.155,0,1.201,1.201,1.215,1.215,1.221,1.221,1.22,1.218,1.218,1.217,1.214,1.213,1.213,1.211,1.21,1.21,1.208,1.205,1.205,1.204,1.203,1.203,1.201,1.2,1.2,1.198,1.197,1.196,1.196,1.196,0,0,0,0,0,0,0,0,0,0,0,0,0,0.908,0.908,0.91,0.911,0.911,0.911,0.912,0.912,0.913,0.914,0.914,0.914,0.914,0,0,1.137,1.137,1.137,1.14,1.142,1.142,1.145,1.146,1.146,1.145,1.145,1.145,1.142,1.141,1.141,1.14,1.137,1.137,1.136,1.134,1.132,1.132,1.132,1.131,1.131,1.13,1.13,1.13,1.13,1.129,1.129,1.129,1.129,0,0,0,0,0,0,0,0,0,0,0,0,0,0,0.898,0.898,0,0,0,1.057,1.056,1.056,1.056,1.056,1.057,1.06,1.06,1.062,1.064,1.064,1.067,1.069,1.07,1.07,1.071,1.071,1.07,1.069,1.069,1.068,1.067,1.067,1.064,1.063,1.061,1.061,1.059,1.059,0,0,0,0,0,0,0,0,0,0,0,0,0,0,0,0,0,0,0,0,0,1.35,1.35,1.343,1.337,1.336,1.336,1.329,1.325,1.325,1.322,1.317,1.317,1.312,1.308,1.308,1.302,1.295,1.295,1.285,1.277,1.277,1.27,1.26,1.26,1.253,1.245,1.245,1.237,1.23,1.23,1.227,1.224,1.224,1.221,1.22,1.22,1.217,1.214,1.214,1.214,1.214,1.214,1.213,1.213,1.214,1.62,1.615,1.605,1.605,1.6,1.595,1.595,1.59,1.587,1.587,1.583,1.583,1.583,1.58,1.578,1.578,1.575,1.575,1.575,1.575,1.573,1.57,1.57,1.568,1.566,1.566,1.563,1.561,1.561,1.561,0,0,0,0
0.696,0.696,0.696,0.696,0.696,0.696,0.696,0.697,0.697,0.697,0.698,0.699,0.699,0.7,0.703,0.703,0.703,0.705,0.706,0.706,0.707,0.708,0.709,0.709,0.709,0.71,0.71,0,0,0,0,0,0,0,0,0,0,0,0,0,0,0,0,0,0,0,0,0,0,0,0,0,0.801,0.801,0.801,0.802,0.803,0.802,0.802,0.802,0.802,0.798,0.795,0.795,0.791,0.791,0,0.782,0.782,0.779,0.775,0.775,0.772,0.771,0.771,0.77,0.77,0.769,0.769,0.767,0.764,0.764,0.76,0.76,0,0,0,0,0.737,0.737,0.732,0.727,0.727,0.723,0.719,0.719,0.716,0.716,0.712,0.71,0.71,0.707,0.705,0.705,0.704,0.703,0.703,0.703,0.703,0,0,0,0,0,0,0.924,0.924,0.924,0.924,0.924,0.924,0.924,0.924,0.922,0.922,0.922,0.921,0.921,0.921,0.921,0.921,0.921,0.92,0.92,0.92,0.92,0.921,0.922,0.922,0.922,0.922,0.921,0.92,0.92,0.92,0.92,0.92,0.921,0.921,1.364,1.364,1.364,1.359,1.359,1.36,1.357,1.35,1.35,1.344,1.341,1.341,1.341,1.324,1.324,1.317,1.312,1.312,1.302,1.298,1.298,1.294,1.292,1.287,1.287,1.285,1.285,1.285,1.284,1.284,1.284,1.284,1.282,1.282,1.281,1.279,1.277,1.277,1.277,1.276,1.276,1.273,1.27,1.27,1.268,1.268,1.27,1.27,0,0,0,0,0,0,0,0,0,0,0,0,0,0,0,0,0,0,0,0,0,0,0,0.971,0.97,0.967,0.965,0.965,0.963,0.963,0.963,0.962,0.962,0.962,0.962,0.963,0.967,0.971,0.971,0.975,0.979,0.979,0.984,0.989,0.993,0.993,0.996,0.997,0.997,0.996,0.996,0.997,0.996,0.996,0.996,0.996,0.995,0.995,0.995,0.995,0.996,0.996,0.998,1.002,1.011,1.011,1.021,1.032,1.051,1.051,1.051,1.06,1.069,1.069,1.077,1.079,1.08,1.08,1.079,1.079,1.079,1.079,1.079,1.079,1.079,1.081,1.083,1.083,1.086,1.09,1.09,1.094,1.097,1.098,1.098,1.1,1.101,1.101,1.102,1.103,1.103,1.102,1.1,1.1,1.095,1.093,1.093,1.088,1.083,1.083,1.078,1.072,1.072,1.064,1.056,1.056,1.049,1.048,1.048,1.047,1.044,1.044,1.044,0,0,0,0,0,0,0,0,0,0,0,0,0,0,0.9,0.9,0.902,0.902,0.906,0.909,0.911,0.911,0.915,0.917,0.917,0.921,0.926,0.934,0.934,0.941,0.947,0.947,0.947,0.955,0.961,0.966,0.966,0.972,0.972,0.972,0.975,0.975,0.975,0.975,0.976,0.976,0.976,0.975,0.975,0.975,0.976,0.976,0.976,0.978,0.979,0.986,0.986,0.986,0.986,0.986,0.988,0.989,0.99,0.99,0.992,0.996,0.996,1,1.005,1.011,1.011,1.017,1.024,1.032,1.032,1.04,1.046,1.05,1.05,1.054,1.058,1.058,1.061,1.065,1.07,1.07,1.074,1.079,1.079,1.085,1.089,1.095,1.095,1.102,1.108,1.112,1.112,1.115,1.119,1.119,1.12,1.146,1.155,1.155,0,1.205,1.205,1.217,1.217,1.218,1.218,1.218,1.217,1.217,1.215,1.214,1.211,1.211,1.21,1.208,1.208,1.205,1.205,1.205,1.203,1.201,1.201,1.2,1.197,1.197,1.196,1.194,1.193,1.193,1.191,1.191,1.191,1.191,1.189,1.189,1.186,1.186,0,0,0,0,0,0,0,0,0.912,0.912,0.912,0.913,0.913,0.913,0.915,0.915,0.915,0.915,1.127,1.127,1.13,1.137,1.137,1.137,1.14,1.141,1.141,1.145,1.145,1.145,1.145,1.145,1.145,1.142,1.141,1.141,1.14,1.139,1.139,1.136,1.135,1.134,1.134,1.132,1.131,1.131,1.13,1.13,1.13,1.13,1.13,1.13,1.129,1.127,1.127,0,0,0,1.115,1.115,0,0,0,0,0,0,0,0,1.061,1.061,1.06,1.059,1.059,1.058,1.057,1.057,1.057,1.057,1.058,1.061,1.061,1.062,1.065,1.065,1.067,1.069,1.07,1.07,1.07,1.07,1.069,1.067,1.067,1.065,1.063,1.063,1.061,1.059,1.057,1.057,1.054,1.052,1.052,1.052,0,0,0,0,0,0,0,0,0,0,0,0,0,0,0,0,1.357,1.357,1.348,1.344,1.344,1.337,1.336,1.336,1.332,1.327,1.322,1.322,1.32,1.315,1.315,1.31,1.305,1.305,1.298,1.29,1.29,1.282,1.274,1.274,1.266,1.259,1.259,1.249,1.242,1.242,1.234,1.229,1.229,1.226,1.223,1.223,1.22,1.217,1.217,1.217,1.214,1.214,1.214,1.214,1.214,1.214,1.214,1.62,1.62,1.615,1.607,1.607,1.602,1.597,1.597,1.592,1.59,1.59,1.587,1.585,1.585,1.583,1.58,1.58,1.578,1.578,1.575,1.575,1.575,1.573,1.573,1.568,1.566,1.566,1.563,1.559,1.559,1.559,1.556,1.556,0,0
