0,0,0,0,0,0,0,0,0,0,0,0,0,0,0,0,0,0,0,0,0,0,0,0,0,0,0,0,0,0,0,0,0,0,0,0,0,0,0,0,0,0,0,0,0,0,0,0,0,0,0,0,0,0,0,0,0,0,0,0,0,0,0,0,0,0,0,0,0,0,0,0,0,0,0,0,0,0,0,0,0,0,0,0,0,0,0,0.679,0.679,0.679,0.678,0.678,0,0,0,0,0,0,0,0,0,0,0,0,0,0,0,0,0,0,0,0,0,0,0,0,0.587,0.587,0.588,0.588,0.588,0.588,0.588,0.587,0.587,0.586,0.585,0.584,0.584,0.583,0.581,0.581,0.578,0.578,0.576,0.573,0.573,0.572,0.571,0.571,0.57,0.569,0.569,0.568,0.567,0.567,0.567,0.566,0.566,0.566,0.565,0.565,0.565,0.565,0.564,0.564,0.564,0.564,0.564,0.563,0.563,0.563,0.563,0.563,0.563,0.563,0.563,0.563,0.563,0.562,0.562,0.562,0.562,0.562,0.562,0.561,0.561,0.56,0.56,0.56,0.56,0,0,0,0,0,0,0,0,0,0,0,0,0,0,0,0.509,0.508,0.508,0.508,0.509,0.509,0.51,0.51,0.511,0.511,0.511,0.512,0.513,0.513,0.513,0.513,0.514,0.513,0.513,0.513,0.512,0.511,0.511,0.509,0.509,0,0,0,0,0,0,0,0,0,0,0,0,0,0.501,0.501,0.501,0.501,0.501,0.502,0,0.625,0.625,0.625,0.626,0.626,0.626,0.626,0.626,0.627,0.627,0.627,0.627,0.627,0.626,0.626,0.626,0.625,0.625,0.625,0.625,0.624,0.624,0.624,0.623,0.623,0.623,0.622,0.622,0.622,0,0,0,0,0,0,0,0,0,0,0,0,0,0,0,0,0.574,0.574,0.572,0.571,0.571,0.57,0.568,0.568,0.567,0.565,0.565,0.564,0.564,0.564,0.564,0.564,0.565,0.565,0.566,0.567,0.568,0.568,0.57,0.572,0.573,0.573,0.574,0.575,0.575,0.576,0.576,0.577,0.577,0.577,0.577,0.577,0.577,0.578,0.577,0.577,0.577,0.577,0.577,0.577,0.577,0.577,0.577,0.577,0.577,0.577,0.578,0.578,0.579,0.58,0.581,0.581,0.582,0.583,0.583,0.585,0.586,0.587,0.587,0.588,0.589,0.589,0.589,0.59,0.59,0.59,0.59,0.59,0.59,0.59,0.59,0.589,0.589,0.589,0.588,0.588,0.587,0.587,0.587,0.587,0.587,0.587,0.588,0.588,0.588,0.588,0.588,0.589,0.589,0.589,0.589,0.589,0.589,0.589,0.589,0.589,0.589,0.588,0.588,0.589,0.589,0.589,0.588,0.588,0.588,0.588,0.588,0.588,0.588,0.588,0.588,0.588,0.588,0.588,0.588,0.589,0.589,0.589,0.589,0.59,0.59,0.59,0.59,0.591,0.591,0.591,0.591,0.591,0.592,0.592,0.592,0.592,0.592,0.592,0.592,0.593,0.593,0.592,0.592,0.593,0.593,0.593,0.593,0.594,0.593,0.593,0,0.594,0.594,0.594,0.594,0,0,0,0,0,0,0,0,0,0,0,0,0,0,0,0,0,0,0,0,0,0,0,0,0,0,0,0,0,0,0,0.755,0.755,0.752,0.752,0.753,0.752,0.751,0.751,0.749,0.748,0.748,0.744,0.744,0.744,0.744,0.742,0.738,0.738,0.738,0,0,0.72,0.72,0.715,0.711,0.711,0.708,0.706,0.706,0.704,0.703,0.703,0.702,0.701,0.701,0.7,0.7,0.7,0.7,0.701,0.701,0.701,0.702,0.702,0.703,0.703,0.703,0.704,0.704,0.704,0.705,0.704,0.703,0.702,0.702,0.7,0.699,0.699,0.697,0.696,0.696,0.694,0.693,0.693,0.691,0.69,0.69,0.689,0.689,0.689,0.688,0.687,0.687,0.687,0.687,0.687,0.685,0.684,0.684,0.683,0.682,0.682,0.682,0.681,0.681,0.681,0.68,0.68,0.68,0.68,0.68,0.68,0.68,0.681,0.681,0.681,0.681,0.681,0.682,0.682,0.682,0.682,0.682,0.683,0.684,0.685,0.685,0.686,0.686,0.686,0.686,0.687,0.687,0.686,0.685,0.685,0.684,0.683,0.683,0.682,0.68,0.68,0.678,0.677,0.677,0.675,0.673,0.673,0.671,0.669,0.669,0.667,0.665,0.665,0.663,0.661,0.661,0.658,0.657,0.657,0.655,0.654,0.654,0.653,0.652,0.652,0.651,0.651,0.651,0.65,0.65,0.65,0.65,0.65,0.65,0.65,0.65,0.65,0.65,0.65,0.65,0.65,0.649,0.648,0.648,0.648,0.648,0.648,0.647,0.646,0.645,0.645,0.644,0.644,0.644,0.644,0.644,0.644,0.643,0.643,0.643,0.642,0.642,0.642,0.642,0.642,0.642,0.642,0.642,0.642,0.642,0.642,0.642,0.643,0.643,0.643,0.644,0.644,0.644,0.644,0.645,0.645,0.645,0.646
0.707,0.709,0.71,0.712,0.712,0.713,0,0,0,0,0,0,0,0,0,0,0,0,0,0,0,0,0,0,0,0,0,0,0,0,0,0,0,0,0,0,0,0,0,0,0,0,0,0,0,0,0,0,0,0,0,0,0,0,0,0,0,0,0,0,0,0,0,0,0,0,0,0,0,0,0,0,0,0,0,0,0,0,0,0,0,0,0,0,0,0,0,0.679,0.679,0.679,0.678,0.678,0.679,0.679,0.68,0,0,0,0,0,0,0,0,0,0,0,0,0,0,0,0,0,0,0,0,0,0,0.589,0.589,0.589,0.589,0.589,0.589,0.589,0.588,0.588,0.587,0.586,0.586,0.585,0.582,0.582,0.58,0.579,0.577,0.574,0.574,0.572,0.571,0.571,0.57,0.568,0.568,0.568,0.567,0.567,0.566,0.566,0.565,0.565,0.565,0.565,0.565,0.564,0.564,0.564,0.564,0.563,0.563,0.563,0.563,0.563,0.563,0.563,0.563,0.563,0.563,0.563,0.563,0.563,0.562,0.562,0.562,0.562,0.562,0.562,0.561,0.561,0.561,0.561,0.561,0,0,0,0,0,0,0,0,0,0,0,0,0,0,0,0,0.508,0.508,0.508,0.509,0.51,0.511,0.511,0.512,0.513,0.513,0.514,0.515,0.515,0.515,0.516,0.516,0.515,0.515,0.515,0.514,0.514,0.516,0,0,0,0,0,0,0,0,0,0,0,0,0,0,0,0.501,0.501,0,0,0,0,0,0.622,0.622,0.622,0.622,0.623,0.623,0.623,0.623,0.624,0.624,0.624,0.624,0.623,0.623,0.623,0.622,0.622,0.622,0.622,0.621,0.621,0.62,0.619,0.618,0.618,0.618,0.622,0.622,0.622,0,0,0,0,0,0,0,0,0,0,0.582,0.582,0.579,0.578,0.578,0.576,0.574,0.574,0.572,0.57,0.57,0.569,0.568,0.568,0.567,0.565,0.565,0.564,0.564,0.564,0.564,0.564,0.565,0.565,0.565,0.567,0.568,0.568,0.569,0.571,0.573,0.573,0.574,0.574,0.574,0.575,0.576,0.576,0.576,0.577,0.577,0.577,0.577,0.578,0.577,0.577,0.577,0.577,0.577,0.577,0.577,0.577,0.577,0.577,0.577,0.578,0.579,0.579,0.58,0.581,0.583,0.583,0.584,0.586,0.587,0.587,0.588,0.589,0.589,0.59,0.59,0.591,0.591,0.591,0.591,0.591,0.591,0.591,0.591,0.59,0.59,0.59,0.589,0.589,0.589,0.588,0.588,0.588,0.588,0.588,0.588,0.588,0.588,0.588,0.588,0.589,0.589,0.589,0.589,0.589,0.59,0.59,0.59,0.59,0.589,0.589,0.589,0.589,0.589,0.588,0.588,0.588,0.587,0.587,0.587,0.587,0.587,0.587,0.587,0.587,0.587,0.587,0.587,0.587,0.587,0.587,0.588,0.588,0.588,0.589,0.589,0.589,0.589,0.589,0.589,0.59,0.59,0.59,0.59,0.591,0.591,0.591,0.591,0.591,0.591,0.591,0.592,0.592,0.592,0.592,0.592,0.592,0.592,0.592,0.593,0.593,0,0,0.593,0.593,0.593,0,0,0,0,0,0,0,0,0,0,0,0,0,0,0,0,0,0,0,0,0,0,0,0,0,0,0,0,0,0,0,0,0,0.752,0.752,0,0,0,0,0,0,0,0.744,0.744,0,0,0,0,0.733,0.728,0.728,0.724,0.72,0.72,0.715,0.711,0.711,0.708,0.706,0.706,0.704,0.703,0.703,0.702,0.702,0.702,0.702,0.701,0.701,0.701,0.702,0.703,0.704,0.704,0.704,0.705,0.705,0.706,0.707,0.707,0.707,0.706,0.706,0.704,0.702,0.702,0.701,0.699,0.699,0.698,0.696,0.696,0.694,0.693,0.693,0.691,0.69,0.69,0.689,0.689,0.689,0.688,0.688,0.688,0.687,0.687,0.687,0.685,0.684,0.684,0.683,0.682,0.682,0.682,0.681,0.681,0.681,0.68,0.68,0.681,0.68,0.68,0.681,0.681,0.681,0.681,0.681,0.681,0.681,0.682,0.682,0.682,0.682,0.682,0.683,0.684,0.685,0.685,0.686,0.687,0.687,0.687,0.688,0.688,0.688,0.687,0.687,0.686,0.686,0.686,0.684,0.683,0.683,0.681,0.679,0.679,0.677,0.675,0.675,0.673,0.67,0.67,0.668,0.665,0.665,0.663,0.661,0.661,0.658,0.657,0.657,0.655,0.653,0.653,0.652,0.651,0.651,0.65,0.65,0.65,0.65,0.65,0.65,0.65,0.65,0.65,0.65,0.65,0.65,0.65,0.65,0.65,0.65,0.649,0.649,0.649,0.648,0.648,0.648,0.647,0.646,0.645,0.645,0.645,0.644,0.644,0.644,0.644,0.644,0.644,0.644,0.644,0.644,0.644,0.644,0.644,0.644,0.644,0.644,0.644,0.644,0.644,0.644,0.644,0.645,0.645,0.646,0.646,0.646,0.646,0.647,0.648,0.648,0.648,0.648
0.707,0.709,0.71,0.712,0.712,0.713,0,0,0,0,0,0,0,0,0,0,0,0,0,0,0,0,0,0,0,0,0,0,0,0,0,0,0,0,0,0,0,0,0,0,0,0,0,0,0,0,0,0,0,0,0,0,0,0,0,0,0,0,0,0,0,0,0,0,0,0,0,0,0,0,0,0,0,0,0,0,0,0,0,0,0,0,0,0,0,0,0,0.679,0.679,0.679,0.679,0.679,0.679,0.679,0.68,0,0,0,0,0,0,0,0,0,0,0,0,0,0,0,0,0,0,0,0,0,0,0,0,0,0,0.592,0.592,0.592,0.592,0.592,0.59,0.589,0.589,0.588,0.586,0.586,0.583,0.579,0.579,0.576,0.576,0.573,0.572,0.572,0.57,0.568,0.568,0.568,0.567,0.567,0.566,0.566,0.565,0.565,0.565,0.565,0.565,0.564,0.564,0.564,0.564,0.563,0.563,0.563,0.563,0.563,0.563,0.563,0.563,0.563,0.563,0.563,0.563,0.563,0.563,0.563,0.563,0.562,0.562,0.562,0.562,0.561,0.561,0.561,0.561,0,0,0,0,0,0,0,0,0,0,0,0,0,0,0,0,0,0,0,0,0,0,0.514,0.514,0.515,0.515,0.516,0.517,0.517,0.517,0.518,0.518,0.518,0.518,0.517,0.517,0.516,0.516,0,0,0,0,0,0,0,0,0,0,0,0,0,0,0,0,0,0,0,0,0,0,0.622,0.622,0.622,0.622,0.623,0.623,0.623,0.623,0.624,0.624,0.624,0.624,0.623,0.623,0.623,0.622,0.622,0.622,0.622,0.621,0.621,0.62,0.619,0.618,0.618,0.618,0,0,0,0,0,0,0,0,0,0,0,0,0,0.582,0.582,0.579,0.578,0.578,0.576,0.574,0.574,0.572,0.57,0.57,0.569,0.568,0.568,0.567,0.565,0.565,0.564,0.564,0.564,0.564,0.564,0.565,0.565,0.565,0.567,0.568,0.568,0.569,0.571,0.573,0.573,0.574,0.574,0.574,0.575,0.576,0.576,0.576,0.577,0.577,0.577,0.578,0.578,0.577,0.577,0.577,0.577,0.577,0.577,0.577,0.577,0.577,0.578,0.578,0.579,0.579,0.579,0.581,0.582,0.584,0.584,0.585,0.587,0.588,0.588,0.589,0.59,0.59,0.591,0.591,0.592,0.592,0.592,0.592,0.592,0.592,0.592,0.591,0.591,0.591,0.59,0.589,0.589,0.589,0.588,0.588,0.588,0.588,0.588,0.588,0.588,0.588,0.588,0.588,0.589,0.589,0.589,0.589,0.589,0.59,0.59,0.59,0.59,0.589,0.589,0.589,0.589,0.589,0.588,0.588,0.588,0.587,0.587,0.587,0.587,0.587,0.587,0.587,0.587,0.587,0.587,0.587,0.587,0.587,0.587,0.588,0.588,0.588,0.589,0.589,0.589,0.589,0.589,0.589,0.59,0.59,0.59,0.59,0.591,0.591,0.591,0.591,0.591,0.591,0.591,0.592,0.592,0.592,0.592,0.592,0.592,0.592,0.592,0.593,0.593,0,0,0.593,0.593,0.593,0,0,0,0,0,0,0,0,0,0,0,0,0,0,0,0,0,0,0,0,0,0,0,0,0,0,0,0,0,0,0,0,0,0,0,0,0,0,0,0,0,0,0,0,0,0,0,0,0.733,0.728,0.728,0.724,0.724,0,0.717,0.713,0.713,0.711,0.71,0.71,0.708,0.706,0.706,0.705,0.705,0.705,0.704,0.703,0.703,0.703,0.704,0.705,0.706,0.706,0.707,0.707,0.707,0.708,0.709,0.709,0.709,0.708,0.708,0.706,0.703,0.703,0.701,0.7,0.7,0.698,0.696,0.696,0.694,0.693,0.693,0.692,0.69,0.69,0.689,0.689,0.689,0.688,0.688,0.688,0.687,0.687,0.687,0.685,0.685,0.684,0.684,0.682,0.682,0.682,0.682,0.681,0.681,0.681,0.681,0.681,0.681,0.681,0.681,0.681,0.681,0.681,0.681,0.681,0.682,0.682,0.682,0.682,0.683,0.683,0.683,0.684,0.686,0.686,0.687,0.687,0.687,0.688,0.689,0.689,0.689,0.689,0.689,0.688,0.687,0.687,0.686,0.686,0.686,0.684,0.681,0.681,0.679,0.677,0.677,0.674,0.672,0.672,0.669,0.666,0.666,0.664,0.661,0.661,0.659,0.657,0.657,0.655,0.653,0.653,0.652,0.651,0.651,0.65,0.65,0.65,0.65,0.65,0.65,0.65,0.65,0.65,0.65,0.65,0.651,0.651,0.651,0.651,0.651,0.651,0.65,0.65,0.65,0.649,0.649,0.648,0.648,0.647,0.647,0.646,0.646,0.646,0.646,0.646,0.646,0.646,0.646,0.646,0.646,0.646,0.646,0.646,0.646,0.646,0.647,0.647,0.647,0.647,0.647,0.648,0.648,0.649,0.649,0.649,0.65,0.65,0.65,0.65,0.65,0.65,0.651
0.707,0.709,0.71,0.712,0.712,0.713,0.72,0,0,0,0,0,0,0,0,0,0,0,0,0,0,0,0,0,0,0,0,0,0,0,0,0,0,0,0,0,0,0,0,0,0,0,0,0,0,0,0,0,0,0,0,0,0,0,0,0,0,0,0,0,0,0,0,0,0,0,0,0,0,0,0,0,0,0,0,0,0,0,0,0,0,0,0,0,0.68,0.68,0.68,0.679,0.679,0.679,0.679,0.679,0.679,0.679,0.68,0.681,0,0,0,0,0,0,0,0,0,0,0,0,0,0,0,0,0,0,0,0,0,0,0,0,0,0.592,0.592,0.592,0.592,0.592,0.59,0.589,0.589,0.588,0.586,0.586,0.583,0.579,0.579,0.576,0.576,0.573,0.572,0.572,0.57,0.568,0.568,0.568,0.567,0.567,0.566,0.566,0.565,0.565,0.565,0.565,0.565,0.564,0.564,0.564,0.564,0.563,0.563,0.563,0.563,0.563,0.563,0.563,0.563,0.563,0.563,0.563,0.563,0.563,0.563,0.563,0.563,0.562,0.562,0.562,0.562,0.561,0.561,0.561,0.561,0.562,0.562,0,0,0,0,0,0,0,0,0,0,0,0,0,0,0,0,0,0,0,0,0.514,0.514,0.515,0.515,0.516,0.517,0.517,0.517,0.518,0.518,0.518,0.518,0.517,0.517,0.516,0.516,0,0,0,0,0,0,0,0,0,0,0,0,0,0,0,0,0,0,0,0,0,0.618,0.618,0.619,0.619,0.62,0.62,0.62,0.621,0.621,0.621,0.622,0.622,0.622,0.621,0.621,0.621,0.62,0.619,0.619,0.618,0.618,0.618,0.616,0.615,0.615,0.614,0.612,0.612,0.612,0,0,0,0,0,0,0,0,0.589,0.589,0.589,0.582,0.582,0.579,0.578,0.578,0.576,0.574,0.574,0.572,0.57,0.57,0.569,0.568,0.568,0.567,0.565,0.565,0.564,0.564,0.564,0.564,0.564,0.565,0.565,0.565,0.567,0.568,0.568,0.569,0.571,0.573,0.573,0.574,0.574,0.574,0.575,0.576,0.576,0.576,0.577,0.577,0.577,0.577,0.577,0.577,0.577,0.577,0.577,0.577,0.577,0.577,0.577,0.577,0.578,0.578,0.579,0.579,0.579,0.581,0.582,0.584,0.584,0.585,0.587,0.588,0.588,0.589,0.59,0.59,0.591,0.591,0.592,0.592,0.592,0.592,0.592,0.592,0.592,0.591,0.591,0.591,0.59,0.589,0.589,0.589,0.588,0.587,0.587,0.587,0.587,0.587,0.587,0.587,0.588,0.588,0.588,0.588,0.589,0.589,0.589,0.589,0.588,0.588,0.588,0.588,0.588,0.588,0.588,0.587,0.587,0.587,0.587,0.587,0.587,0.587,0.586,0.586,0.586,0.586,0.586,0.586,0.586,0.586,0.585,0.585,0.586,0.586,0.586,0.587,0.587,0.587,0.588,0.588,0.588,0.588,0.589,0.589,0.589,0.59,0.59,0.59,0.59,0.591,0.591,0.591,0.591,0.591,0.591,0.591,0.591,0.591,0.591,0.591,0.591,0.592,0.592,0.592,0.592,0.592,0.593,0.593,0.593,0,0,0,0,0,0,0,0,0,0,0,0,0,0,0,0,0,0,0,0,0,0,0,0,0,0,0,0,0,0,0,0,0,0,0,0,0,0,0,0,0,0,0.738,0.738,0.737,0.736,0.736,0.732,0.728,0.728,0.724,0.724,0,0.717,0.713,0.713,0.711,0.71,0.71,0.708,0.706,0.706,0.705,0.705,0.705,0.704,0.703,0.703,0.703,0.704,0.705,0.706,0.706,0.707,0.707,0.707,0.708,0.709,0.709,0.709,0.708,0.708,0.706,0.703,0.703,0.701,0.7,0.7,0.698,0.696,0.696,0.694,0.692,0.692,0.691,0.69,0.69,0.689,0.689,0.689,0.688,0.688,0.688,0.687,0.687,0.687,0.685,0.685,0.684,0.684,0.682,0.682,0.682,0.682,0.681,0.681,0.681,0.681,0.681,0.681,0.681,0.681,0.681,0.681,0.681,0.681,0.681,0.682,0.682,0.682,0.682,0.683,0.683,0.683,0.684,0.686,0.686,0.687,0.687,0.687,0.688,0.689,0.689,0.689,0.689,0.689,0.688,0.687,0.687,0.686,0.686,0.686,0.684,0.681,0.681,0.679,0.677,0.677,0.674,0.672,0.672,0.669,0.666,0.666,0.664,0.661,0.661,0.659,0.657,0.657,0.655,0.653,0.653,0.652,0.651,0.651,0.65,0.65,0.65,0.65,0.65,0.65,0.65,0.65,0.65,0.65,0.65,0.651,0.651,0.651,0.651,0.651,0.651,0.65,0.65,0.65,0.649,0.649,0.648,0.648,0.647,0.647,0.646,0.646,0.646,0.646,0.646,0.646,0.646,0.646,0.646,0.646,0.646,0.646,0.646,0.646,0.646,0.647,0.647,0.647,0.647,0.647,0.648,0.648,0.649,0.649,0.649,0.65,0.65,0.65,0.65,0.65,0.65,0.651
0.709,0.711,0.713,0.714,0.714,0.717,0.72,0,0,0,0,0,0,0,0,0,0,0,0,0,0,0,0,0,0,0,0,0,0,0,0,0,0,0,0,0,0,0,0,0,0,0,0,0,0,0,0,0,0,0,0,0,0,0,0,0,0,0,0,0,0,0,0,0,0,0,0,0,0,0,0,0,0,0,0,0,0,0,0,0,0,0,0.68,0.68,0.68,0.68,0.68,0.68,0.679,0.679,0.679,0.679,0.68,0.68,0.68,0.681,0,0.681,0.681,0,0,0,0,0,0,0,0,0,0,0,0,0,0,0,0,0,0,0,0,0,0,0.595,0.595,0.595,0.594,0.594,0.594,0.593,0.593,0.591,0.589,0.589,0.586,0.582,0.582,0.579,0.578,0.575,0.573,0.573,0.571,0.57,0.57,0.568,0.567,0.567,0.567,0.566,0.566,0.566,0.565,0.565,0.565,0.564,0.564,0.564,0.564,0.564,0.564,0.563,0.563,0.563,0.563,0.563,0.564,0.564,0.564,0.564,0.564,0.564,0.564,0.564,0.564,0.563,0.563,0.563,0.563,0.562,0.562,0.562,0.562,0.562,0.562,0,0,0,0,0,0,0,0,0,0,0,0,0,0,0,0,0,0,0,0,0,0.516,0.516,0.517,0.517,0.519,0.519,0.519,0.52,0.52,0.52,0.52,0.52,0.52,0.519,0.519,0,0,0,0,0,0,0,0,0,0,0,0,0,0,0,0,0,0,0,0,0,0.615,0.615,0.615,0.616,0.617,0.618,0.618,0.618,0.618,0.618,0.618,0.619,0.619,0.618,0.618,0.618,0.617,0.617,0.617,0.615,0.615,0.615,0.614,0.613,0.613,0.611,0.61,0.61,0.61,0,0,0,0,0,0,0,0,0.589,0.589,0.589,0.585,0.585,0.585,0.58,0.58,0.578,0.577,0.577,0.574,0.573,0.573,0.571,0.569,0.569,0.567,0.566,0.566,0.565,0.565,0.565,0.565,0.565,0.565,0.565,0.566,0.567,0.568,0.568,0.57,0.571,0.573,0.573,0.574,0.575,0.575,0.576,0.576,0.577,0.577,0.577,0.578,0.578,0.577,0.577,0.577,0.577,0.577,0.577,0.577,0.577,0.577,0.577,0.578,0.578,0.578,0.579,0.581,0.582,0.582,0.584,0.586,0.586,0.588,0.589,0.59,0.59,0.591,0.591,0.591,0.592,0.592,0.592,0.592,0.592,0.592,0.592,0.592,0.592,0.591,0.59,0.59,0.589,0.588,0.588,0.587,0.587,0.586,0.586,0.585,0.585,0.585,0.585,0.585,0.586,0.586,0.586,0.587,0.587,0.587,0.588,0.588,0.587,0.587,0.587,0.587,0.587,0.587,0.587,0.586,0.586,0.586,0.585,0.585,0.585,0.585,0.585,0.585,0.584,0.584,0.584,0.584,0.584,0.584,0.584,0.584,0.584,0.585,0.585,0.585,0.586,0.586,0.586,0.587,0.587,0.587,0.588,0.589,0.589,0.589,0.59,0.59,0.59,0.59,0.59,0.59,0.591,0.591,0.591,0.591,0.591,0.591,0.591,0.591,0.591,0.591,0.591,0.591,0.591,0.591,0.592,0.592,0.592,0.592,0.592,0,0,0,0,0,0,0,0,0,0,0,0,0,0,0,0,0,0,0,0,0,0,0,0,0,0,0,0,0,0,0,0,0,0,0,0,0,0,0,0,0.736,0.736,0.736,0.735,0.735,0.732,0.729,0.729,0.725,0.725,0,0.72,0.717,0.717,0.715,0.713,0.713,0.712,0.71,0.71,0.71,0.709,0.709,0.708,0.707,0.707,0.707,0.707,0.708,0.709,0.709,0.709,0.71,0.71,0.71,0.711,0.711,0.711,0.71,0.71,0.707,0.704,0.704,0.702,0.7,0.7,0.697,0.696,0.696,0.694,0.692,0.692,0.69,0.688,0.688,0.688,0.687,0.687,0.687,0.687,0.687,0.687,0.686,0.686,0.685,0.685,0.684,0.684,0.683,0.682,0.682,0.682,0.682,0.682,0.681,0.681,0.682,0.682,0.682,0.682,0.682,0.682,0.682,0.682,0.682,0.682,0.682,0.682,0.683,0.683,0.683,0.683,0.685,0.686,0.686,0.687,0.687,0.687,0.688,0.69,0.69,0.69,0.69,0.69,0.69,0.689,0.689,0.688,0.687,0.687,0.685,0.684,0.684,0.681,0.678,0.678,0.676,0.673,0.673,0.67,0.668,0.668,0.665,0.662,0.662,0.66,0.658,0.658,0.655,0.654,0.654,0.653,0.652,0.652,0.651,0.65,0.65,0.65,0.65,0.651,0.651,0.651,0.651,0.652,0.652,0.653,0.653,0.653,0.653,0.653,0.652,0.651,0.651,0.651,0.65,0.649,0.649,0.649,0.648,0.648,0.648,0.647,0.647,0.647,0.648,0.648,0.648,0.648,0.648,0.648,0.648,0.649,0.649,0.649,0.65,0.65,0.65,0.651,0.651,0.652,0.652,0.653,0.653,0.653,0.653,0.653,0.653,0.653,0.653,0.653,0.653,0.653
0.711,0.713,0.715,0.718,0.718,0.72,0.723,0,0,0,0,0,0,0,0,0,0,0,0,0,0,0,0,0,0,0,0,0,0,0,0,0,0,0,0,0,0,0,0,0,0,0,0,0,0,0,0,0,0,0,0,0,0,0,0,0,0,0,0,0,0,0,0,0,0,0,0,0,0,0,0,0,0,0,0,0,0,0,0,0,0,0,0.68,0.68,0.68,0.68,0.68,0.68,0.679,0.679,0.679,0.68,0.68,0.68,0.68,0.681,0,0.681,0.681,0,0,0,0,0,0,0,0,0,0,0,0,0,0,0,0,0,0,0,0,0,0,0,0,0.598,0.598,0.598,0.597,0.596,0.596,0.595,0.595,0,0,0.586,0.586,0.582,0.578,0.578,0.575,0.573,0.573,0.571,0.571,0.569,0.568,0.567,0.567,0.567,0.566,0.566,0.566,0.565,0.565,0.565,0.565,0.565,0.564,0.564,0.564,0.564,0.564,0.564,0.564,0.564,0.564,0.565,0.565,0.565,0.565,0.565,0.565,0.565,0.564,0.564,0.564,0.564,0.564,0.563,0.563,0.563,0.563,0,0,0,0,0,0,0,0,0,0,0,0,0,0,0,0,0,0,0,0,0,0,0,0,0,0,0.52,0.52,0.521,0.521,0.521,0.522,0.522,0.522,0.522,0.522,0.522,0,0,0,0,0,0,0,0,0,0,0,0,0,0,0,0,0,0,0,0,0,0,0.615,0.615,0.615,0.616,0.617,0.618,0.618,0.618,0.618,0.618,0.618,0.619,0.619,0.618,0.618,0.618,0.617,0.617,0.617,0.615,0.615,0.615,0.614,0.613,0.613,0.611,0.61,0.61,0.61,0,0,0,0,0,0,0,0,0,0,0,0.585,0.585,0.585,0.582,0.582,0.581,0.579,0.579,0.577,0.574,0.574,0.573,0.571,0.571,0.569,0.568,0.568,0.567,0.567,0.567,0.567,0.567,0.567,0.568,0.568,0.571,0.571,0.571,0.572,0.573,0.574,0.574,0.575,0.576,0.576,0.577,0.577,0.578,0.578,0.578,0.578,0.578,0.578,0.578,0.578,0.578,0.578,0.577,0.577,0.577,0.578,0.578,0.578,0.579,0.579,0.58,0.582,0.583,0.583,0.585,0.587,0.587,0.589,0.59,0.591,0.591,0.591,0.592,0.592,0.592,0.592,0.592,0.592,0.592,0.592,0.592,0.592,0.592,0.591,0.59,0.59,0.589,0.588,0.588,0.587,0.587,0.586,0.586,0.585,0.585,0.585,0.585,0.585,0.586,0.586,0.586,0.587,0.587,0.587,0.588,0.588,0.587,0.587,0.587,0.587,0.587,0.587,0.587,0.586,0.586,0.586,0.585,0.585,0.585,0.585,0.585,0.585,0.584,0.584,0.584,0.584,0.584,0.584,0.584,0.584,0.584,0.585,0.585,0.585,0.586,0.586,0.586,0.587,0.587,0.587,0.588,0.589,0.589,0.589,0.59,0.59,0.59,0.59,0.59,0.59,0.591,0.591,0.591,0.591,0.591,0.591,0.591,0.591,0.591,0.591,0.591,0.591,0.591,0.591,0.592,0.592,0.592,0.592,0.592,0,0,0,0,0,0,0,0,0,0,0,0,0,0,0,0,0,0,0,0,0,0,0,0,0,0,0,0,0,0,0,0,0,0,0,0,0,0,0,0,0.736,0.736,0.736,0.735,0.735,0.732,0.729,0.729,0.727,0.727,0,0.723,0.721,0.721,0.719,0.718,0.718,0.716,0.715,0.715,0.714,0.713,0.712,0.712,0.711,0.71,0.71,0.71,0.711,0.711,0.711,0.711,0.712,0.712,0.712,0.712,0.712,0.712,0.712,0,0,0.704,0.704,0.702,0.7,0.7,0.697,0.697,0,0,0,0,0.69,0.688,0.688,0.688,0.687,0.687,0.687,0.687,0.687,0.687,0.686,0.686,0.685,0.685,0.684,0.684,0.683,0.683,0.683,0.683,0.683,0.683,0.682,0.682,0.682,0.682,0.682,0.682,0.682,0.682,0.682,0.682,0.682,0.682,0.682,0.682,0,0,0.684,0.684,0.685,0.686,0.686,0.687,0.688,0.688,0.689,0.69,0.691,0.691,0.691,0.691,0.691,0.69,0.69,0.69,0.689,0.689,0.687,0.685,0.685,0.682,0.68,0.68,0.677,0.675,0.675,0.671,0.668,0.668,0.666,0.663,0.663,0.661,0.658,0.658,0.657,0.655,0.655,0.654,0.653,0.653,0.652,0.652,0.652,0.652,0.652,0.652,0.652,0.652,0.652,0.653,0.653,0.654,0.654,0.654,0.654,0.654,0.653,0.653,0.653,0.653,0.652,0.651,0.651,0.65,0.65,0.65,0.649,0.649,0.65,0.65,0.65,0.651,0.651,0.651,0.652,0.652,0.652,0.653,0.653,0.653,0.655,0.656,0.656,0.656,0.657,0.658,0.658,0.658,0.658,0.658,0.658,0.658,0.657,0.656,0.656,0.656,0.656,0.656
0.711,0.713,0.715,0.718,0.718,0.72,0.723,0,0,0,0,0,0,0,0,0,0,0,0,0,0,0,0,0,0,0,0,0,0,0,0,0,0,0,0,0,0,0,0,0,0,0,0,0,0,0,0,0,0,0,0,0,0,0,0,0,0,0,0,0,0,0,0,0,0,0,0,0,0,0,0,0,0,0,0,0,0,0,0,0,0,0,0.68,0.68,0.68,0.68,0.68,0.68,0.679,0.679,0.679,0.68,0.68,0.68,0.68,0.681,0,0.681,0.681,0,0,0,0,0,0,0,0,0,0,0,0,0,0,0,0,0,0,0,0,0,0,0,0,0.598,0.598,0.598,0.597,0.596,0.596,0.595,0.595,0,0,0.586,0.586,0.582,0.578,0.578,0.575,0.573,0.573,0.571,0.57,0.569,0.568,0.567,0.567,0.567,0.566,0.566,0.566,0.565,0.565,0.565,0.565,0.565,0.564,0.564,0.564,0.564,0.564,0.564,0.564,0.564,0.564,0.565,0.565,0.565,0.565,0.565,0.565,0.565,0.564,0.564,0.564,0.564,0.564,0.563,0.563,0.563,0.563,0,0,0,0,0,0,0,0,0,0,0,0,0,0,0,0,0,0,0,0,0,0,0,0.52,0.52,0.521,0.52,0.52,0.521,0.521,0.521,0.522,0.522,0.522,0.522,0.522,0.522,0,0,0,0,0,0,0,0,0,0,0,0,0,0,0,0,0,0,0,0,0,0,0.615,0.615,0.614,0.614,0.615,0.615,0.615,0.616,0.616,0.616,0.616,0.616,0.616,0.616,0.615,0.615,0.615,0.614,0.614,0.613,0.612,0.612,0.611,0.61,0.61,0.608,0.606,0.606,0.605,0.605,0,0,0,0,0,0,0,0,0,0,0.585,0.585,0.585,0.582,0.582,0.581,0.579,0.579,0.577,0.574,0.574,0.573,0.571,0.571,0.569,0.568,0.568,0.567,0.567,0.567,0.567,0.567,0.567,0.568,0.568,0.571,0.571,0.571,0.572,0.573,0.574,0.574,0.575,0.576,0.576,0.577,0.577,0.578,0.578,0.578,0.578,0.578,0.578,0.578,0.578,0.578,0.578,0.577,0.577,0.577,0.578,0.578,0.578,0.579,0.579,0.58,0.582,0.583,0.583,0.585,0.587,0.587,0.589,0.59,0.591,0.591,0.591,0.592,0.592,0.592,0.592,0.592,0.592,0.592,0.592,0.591,0.591,0.591,0.59,0.589,0.589,0.588,0.587,0.587,0.587,0.586,0.586,0.585,0.584,0.584,0.584,0.584,0.584,0.585,0.585,0.585,0.586,0.586,0.586,0.586,0.586,0.586,0.586,0.586,0.586,0.586,0.586,0.585,0.585,0.585,0.585,0.584,0.584,0.584,0.584,0.584,0.584,0.583,0.583,0.583,0.583,0.582,0.582,0.582,0.583,0.583,0.583,0.583,0.584,0.585,0.585,0.585,0.586,0.586,0.586,0.587,0.588,0.588,0.589,0.589,0.589,0.59,0.59,0.59,0.59,0.59,0.591,0.59,0.59,0.59,0.59,0.59,0.591,0.59,0.59,0.59,0.591,0.591,0.591,0.591,0.591,0.591,0.591,0.591,0,0,0.819,0.819,0.819,0.819,0.819,0.819,0.818,0.818,0.818,0.818,0.818,0.818,0.818,0,0,0,0,0,0,0,0,0,0,0,0,0,0,0,0,0,0,0,0,0,0,0,0,0,0.735,0.735,0.735,0.735,0.735,0.732,0.729,0.729,0.727,0.727,0.727,0.723,0.721,0.721,0.719,0.718,0.718,0.716,0.715,0.715,0.714,0.713,0.712,0.712,0.711,0.71,0.71,0.71,0.711,0.711,0.711,0.711,0.712,0.712,0.712,0.712,0.712,0.712,0.712,0,0.708,0.704,0.704,0.702,0.699,0.699,0.697,0.694,0.694,0.694,0,0,0.69,0.688,0.688,0.688,0.687,0.687,0.687,0.687,0.687,0.687,0.686,0.686,0.685,0.685,0.684,0.684,0.683,0.683,0.683,0.683,0.683,0.683,0.682,0.682,0.682,0.682,0.682,0.682,0.682,0.682,0.682,0.682,0.682,0.682,0.682,0.682,0.682,0.683,0.683,0.684,0.685,0.686,0.686,0.687,0.688,0.688,0.689,0.69,0.691,0.691,0.691,0.691,0.691,0.69,0.69,0.69,0.689,0.689,0.687,0.685,0.685,0.682,0.68,0.68,0.677,0.675,0.675,0.671,0.668,0.668,0.666,0.663,0.663,0.661,0.658,0.658,0.657,0.655,0.655,0.654,0.653,0.653,0.652,0.652,0.652,0.652,0.652,0.652,0.652,0.652,0.652,0.653,0.653,0.654,0.654,0.654,0.654,0.654,0.653,0.653,0.653,0.653,0.652,0.651,0.651,0.65,0.65,0.65,0.649,0.649,0.65,0.65,0.65,0.651,0.651,0.651,0.652,0.652,0.652,0.653,0.653,0.653,0.655,0.656,0.656,0.656,0.657,0.658,0.658,0.658,0.658,0.658,0.658,0.658,0.657,0.656,0.656,0.656,0.656,0.656
0.715,0.715,0.718,0.723,0.723,0.723,0.726,0.73,0.73,0.732,0.734,0,0,0,0,0,0,0,0,0,0,0,0,0,0,0,0,0,0,0,0,0,0,0,0,0,0,0,0,0,0,0,0,0,0,0,0,0,0,0,0,0,0,0,0,0,0,0,0,0,0,0,0,0,0,0,0,0,0,0,0,0,0,0,0,0,0,0,0,0,0,0,0.681,0.681,0.681,0.68,0.68,0.68,0.68,0.68,0.68,0.68,0.68,0.68,0.681,0.68,0.68,0.68,0.68,0,0,0,0,0,0,0,0,0,0,0,0,0,0,0,0,0,0,0,0,0,0,0.603,0.603,0.603,0.601,0.601,0.601,0.6,0.6,0.602,0.601,0.601,0,0.596,0.596,0,0.582,0.582,0.578,0.574,0.574,0.572,0.57,0.57,0.569,0.568,0.568,0.568,0.567,0.567,0.567,0.566,0.566,0.566,0.565,0.565,0.565,0.565,0.565,0.565,0.565,0.565,0.565,0.565,0.566,0.566,0.566,0.566,0.566,0.566,0.566,0.565,0.565,0.565,0.565,0.565,0.564,0.563,0.563,0.563,0,0,0,0,0,0,0,0,0,0,0,0,0,0,0,0,0,0,0,0,0,0,0,0,0.52,0.52,0.521,0.521,0.522,0.522,0.522,0.522,0.523,0.523,0.523,0.523,0.523,0.523,0,0,0,0,0,0,0,0,0,0,0,0,0,0,0,0,0,0,0,0.611,0.611,0.611,0.612,0.612,0.612,0.612,0.613,0.613,0.613,0.613,0.614,0.614,0.614,0.614,0.613,0.613,0.613,0.612,0.611,0.611,0.611,0.61,0.61,0.608,0.607,0.606,0.606,0.605,0.604,0.604,0.602,0.6,0.6,0.599,0.598,0.598,0.598,0,0,0,0.59,0.59,0.587,0.587,0.587,0.584,0.584,0.582,0.582,0,0.579,0.577,0.577,0.575,0.575,0,0.572,0.57,0.57,0.57,0,0,0,0,0,0,0,0,0,0,0.576,0.576,0.577,0.577,0.578,0.579,0.579,0.579,0.579,0.579,0.579,0.58,0.58,0.58,0.58,0.58,0.58,0.579,0.579,0.579,0.579,0.579,0.579,0.579,0.579,0.58,0.58,0.581,0.583,0.584,0.584,0.586,0.588,0.59,0.59,0.59,0.591,0.591,0.592,0.592,0.592,0.592,0.592,0.592,0.591,0.591,0.591,0.591,0.59,0.59,0.59,0.589,0.589,0.588,0.587,0.587,0.586,0.586,0.586,0.585,0.584,0.584,0.584,0.584,0.584,0.584,0.584,0.584,0.585,0.585,0.585,0.585,0.585,0.585,0.585,0.585,0.585,0.584,0.584,0.584,0.583,0.583,0.583,0.582,0.582,0.582,0.582,0.582,0.582,0.582,0.581,0.581,0.581,0.581,0.581,0.581,0.581,0.582,0.582,0.582,0.583,0.584,0.584,0.584,0.585,0.585,0.586,0.587,0.587,0.587,0.588,0.589,0.589,0.589,0.59,0.59,0.59,0.59,0.59,0.59,0.59,0.59,0.59,0.59,0.59,0.59,0.59,0.59,0.591,0.591,0.591,0.591,0.591,0.591,0.591,0.591,0.82,0.82,0.819,0.819,0.819,0.819,0.819,0.819,0.818,0.818,0.818,0.818,0.818,0.818,0.818,0.821,0.822,0.822,0.822,0,0,0,0,0,0,0,0,0,0,0,0,0,0,0,0,0,0,0,0,0,0.735,0.735,0.735,0.735,0.736,0.733,0.731,0.731,0.729,0.727,0.727,0.727,0.727,0.729,0.729,0.723,0.721,0.721,0.72,0.72,0.72,0.718,0.717,0.717,0.715,0.714,0.714,0.714,0.714,0.714,0.713,0.713,0.713,0.713,0.713,0.713,0.713,0.712,0.71,0.71,0.707,0.703,0.703,0.701,0.698,0.698,0.696,0.693,0.693,0.691,0.69,0.69,0.688,0.687,0.687,0.687,0.687,0,0.686,0.686,0.686,0.686,0.686,0.686,0.686,0.686,0.685,0.685,0.685,0.685,0.685,0.684,0.684,0.684,0.683,0.683,0.683,0.683,0.683,0.683,0.683,0.683,0.683,0.683,0.682,0.682,0.682,0.682,0.682,0.683,0.683,0.684,0.685,0.686,0.686,0.687,0.687,0.687,0.689,0.69,0.691,0.691,0.691,0.692,0.692,0.691,0.691,0.691,0.69,0.69,0.689,0.687,0.687,0.685,0.685,0.685,0.68,0.677,0.677,0.674,0.671,0.671,0.667,0.665,0.665,0.662,0.66,0.66,0.658,0.657,0.657,0.655,0.654,0.654,0.653,0.653,0.653,0.653,0.653,0.653,0.653,0.653,0.653,0.654,0.654,0.655,0.655,0.655,0.655,0.655,0.655,0.655,0.655,0.655,0.655,0.655,0.655,0.655,0.655,0.655,0.655,0.656,0.657,0.658,0.658,0.658,0.659,0.659,0.659,0.66,0.66,0.66,0.66,0.662,0.662,0.662,0.663,0.663,0.663,0.663,0.663,0.663,0.661,0.661,0.66,0.66,0.66,0.659,0.658,0.658,0.658,0.658
0.718,0.718,0.72,0.723,0.723,0.725,0.728,0.73,0.73,0.732,0.734,0,0,0,0,0,0,0,0,0,0,0,0,0,0,0,0,0,0,0,0,0,0,0,0,1.037,1.037,1.037,1.04,1.041,1.041,1.041,1.042,0,0,0,0,0,0,0,0,0,0,0,0,0,0,0,0,0,0,0,0,0,0,0,0,0,0,0,0,0,0,0,0,0,0,0,0,0,0,0,0.681,0.681,0.681,0.681,0.681,0.68,0.68,0.68,0.68,0.68,0.681,0.681,0.681,0.68,0.68,0.68,0.68,0,0,0,0,0,0,0,0,0,0,0,0,0,0,0,0,0,0,0,0,0,0,0.603,0.603,0.603,0.603,0.603,0.603,0.603,0.602,0.602,0.601,0.601,0,0.596,0.596,0,0.587,0.587,0.582,0.578,0.578,0.574,0.571,0.571,0.57,0.57,0.57,0.569,0.568,0.568,0.568,0.567,0.567,0.567,0.567,0.567,0.567,0.567,0.567,0.567,0.567,0.567,0.567,0.567,0.567,0.567,0.567,0.567,0.567,0.567,0.567,0.567,0.567,0.566,0.566,0.566,0.565,0.564,0.564,0.564,0,0,0,0,0,0,0,0,0,0,0,0,0,0,0,0,0,0,0,0,0,0,0,0,0,0.523,0.523,0.523,0.523,0.523,0.523,0.523,0.523,0.523,0.523,0.523,0.523,0.523,0,0,0,0,0,0,0,0,0,0,0,0,0,0,0,0,0,0,0,0.611,0.611,0.611,0.612,0.612,0.612,0.612,0.613,0.613,0.613,0.613,0.614,0.614,0.614,0.614,0.613,0.613,0.613,0.612,0.611,0.611,0.611,0.61,0.61,0.608,0.607,0.606,0.606,0.605,0.604,0.604,0.602,0.6,0.6,0.599,0.598,0.598,0.598,0,0,0,0.59,0.59,0.589,0.587,0.587,0.587,0,0,0,0,0,0.58,0.58,0,0,0,0,0,0,0,0,0,0,0,0,0,0,0,0,0,0.579,0.579,0.58,0.58,0.581,0.582,0.582,0.582,0.582,0.582,0.582,0.583,0.583,0.583,0.583,0.582,0.582,0.581,0.581,0.581,0.581,0.58,0.58,0.58,0.581,0.581,0.581,0.582,0.584,0.585,0.585,0.587,0.588,0.59,0.59,0.591,0.591,0.591,0.592,0.592,0.592,0.592,0.592,0.592,0.591,0.591,0.591,0.591,0.59,0.59,0.59,0.589,0.589,0.588,0.587,0.587,0.586,0.586,0.586,0.585,0.584,0.584,0.584,0.584,0.584,0.584,0.584,0.584,0.585,0.585,0.585,0.585,0.585,0.585,0.585,0.585,0.585,0.584,0.584,0.584,0.583,0.583,0.583,0.582,0.582,0.582,0.582,0.582,0.582,0.582,0.581,0.581,0.581,0.581,0.581,0.581,0.581,0.582,0.582,0.582,0.583,0.584,0.584,0.584,0.585,0.585,0.586,0.587,0.587,0.587,0.588,0.589,0.589,0.589,0.59,0.59,0.59,0.59,0.59,0.59,0.59,0.59,0.59,0.59,0.59,0.59,0.59,0.59,0.591,0.591,0.591,0.591,0.591,0.591,0.822,0.82,0.82,0.82,0.82,0.82,0.82,0.82,0.821,0.821,0.821,0.821,0.82,0.82,0.82,0.821,0.821,0.821,0.822,0.822,0.822,0,0,0,0,0,0.833,0.833,0,0.832,0.832,0,0,0,0,0,0,0,0,0,0,0,0.736,0.736,0.736,0.736,0.737,0.736,0.735,0.734,0.734,0.733,0.732,0.732,0.732,0.729,0.729,0.728,0.726,0.726,0.725,0.724,0.724,0.723,0.721,0.721,0.72,0.718,0.718,0.718,0.717,0.717,0.716,0.715,0.715,0.713,0.713,0.713,0.713,0.711,0.709,0.709,0.704,0.703,0.701,0.698,0.698,0.698,0.696,0.693,0.693,0.691,0.69,0.69,0.688,0.687,0.687,0.687,0.687,0,0.686,0.686,0.686,0.686,0.686,0.686,0.686,0.686,0.685,0.685,0.685,0.685,0.685,0.685,0.685,0.686,0.685,0.685,0.686,0.685,0.685,0.685,0.685,0.685,0.684,0.684,0.683,0.683,0.683,0.683,0.683,0.683,0.683,0.684,0.685,0.686,0.686,0.687,0.687,0.687,0.689,0.69,0.691,0.691,0.691,0.691,0.691,0.692,0.692,0.692,0.691,0.691,0.69,0.688,0.688,0.687,0.685,0.685,0.683,0.68,0.68,0.677,0.674,0.674,0.67,0.666,0.666,0.664,0.663,0.663,0.661,0.659,0.659,0.658,0.656,0.656,0.655,0.655,0.655,0.655,0.655,0.655,0.655,0.655,0.655,0.656,0.656,0.656,0.657,0.657,0.657,0.657,0.657,0.657,0.658,0.659,0.659,0.66,0.661,0.661,0.662,0.663,0.665,0.665,0.666,0.667,0.667,0.668,0.668,0.668,0.668,0.669,0.669,0.669,0.669,0.67,0.67,0.67,0.671,0.671,0.67,0.67,0.67,0.669,0.668,0.668,0.666,0.664,0.664,0.663,0.662,0.662,0.661,0.661
0.718,0.718,0.72,0.723,0.723,0.725,0.728,0.73,0.73,0.732,0.734,0.737,0.737,0,0,0,0,0,0,0,0,0,0,0,0,0,0,0,0,0,0,0,0,0,0,1.037,1.037,1.037,1.04,1.041,1.041,1.041,1.042,0,0,0,0,0,0,0,0,0,0,0,0,0,0,0,0,0,0,0,0,0,0,0,0,0,0,0,0,0,0,0,0,0,0,0,0,0,0,0,0.681,0.681,0.681,0.681,0.681,0.68,0.68,0.68,0.68,0.68,0.68,0.68,0.681,0.68,0.68,0.679,0.679,0.679,0.679,0.68,0,0,0,0,0,0,0,0,0,0,0,0,0,0,0,0,0,0.606,0.606,0.603,0.603,0.603,0.603,0.603,0.603,0.603,0.602,0.602,0.601,0.601,0.605,0.596,0.596,0.599,0.587,0.587,0.582,0.578,0.578,0.574,0.571,0.571,0.57,0.57,0.57,0.569,0.568,0.568,0.568,0.567,0.567,0.567,0.567,0.567,0.567,0.567,0.567,0.567,0.567,0.567,0.567,0.567,0.567,0.567,0.567,0.567,0.567,0.567,0.567,0.567,0.567,0.566,0.566,0.566,0.565,0.564,0.564,0.564,0,0,0,0,0,0,0,0,0,0,0,0,0,0,0,0,0,0,0,0,0,0,0,0,0,0.523,0.523,0.523,0.523,0.523,0.523,0.523,0.523,0.523,0.523,0.523,0.523,0.523,0.523,0,0,0,0,0,0,0,0,0,0,0,0,0,0,0,0,0.609,0.609,0.61,0.61,0.61,0.611,0.611,0.611,0.611,0.611,0.611,0.612,0.612,0.612,0.612,0.611,0.611,0.611,0.611,0.611,0.61,0.61,0.61,0.609,0.607,0.607,0.606,0.605,0.605,0.605,0.603,0.602,0.602,0.601,0.599,0.599,0.598,0.597,0.597,0.596,0.594,0.594,0.593,0.59,0.59,0.589,0.587,0.587,0.587,0.587,0.587,0.586,0.585,0.585,0.58,0.58,0,0,0,0,0,0,0,0,0,0,0.576,0.576,0,0,0,0,0,0.579,0.579,0.58,0.58,0.581,0.582,0.582,0.582,0.582,0.582,0.582,0.583,0.583,0.583,0.583,0.582,0.582,0.581,0.581,0.581,0.581,0.58,0.58,0.58,0.581,0.581,0.581,0.582,0.584,0.585,0.585,0.587,0.588,0.59,0.59,0.591,0.591,0.591,0.592,0.592,0.592,0.592,0.591,0.591,0.591,0.591,0.591,0.591,0.59,0.59,0.59,0.589,0.589,0.588,0.587,0.587,0.586,0.585,0.585,0.584,0.584,0.583,0.583,0.583,0.583,0.583,0.583,0.584,0.584,0.584,0.584,0.584,0.584,0.583,0.583,0.583,0.583,0.582,0.582,0.582,0.581,0.581,0.581,0.58,0.58,0.58,0.58,0.58,0.58,0.58,0.58,0.58,0.58,0.58,0.58,0.58,0.58,0.581,0.581,0.582,0.582,0.583,0.583,0.584,0.585,0.585,0.586,0.586,0.587,0.587,0.588,0.588,0.588,0.589,0.589,0.589,0.59,0.59,0.59,0.59,0.59,0.59,0.59,0.59,0.59,0.589,0.589,0.59,0.59,0.59,0.59,0.59,0.59,0.591,0.591,0.591,0.823,0.822,0.822,0.822,0.822,0.822,0.824,0.824,0.824,0.824,0.824,0.824,0.824,0.824,0.824,0.825,0.826,0.826,0.826,0,0,0,0,0,0.833,0.833,0,0.832,0.832,0,0,0,0,0,0,0,0,0,0,0,0,0,0.739,0.739,0.739,0.739,0.739,0.739,0.739,0.738,0.737,0.737,0.737,0.735,0.735,0.734,0.732,0.732,0.729,0.729,0.729,0.727,0.725,0.725,0.723,0.721,0.721,0.72,0.718,0.718,0.716,0.715,0.715,0.714,0.714,0.713,0.713,0.711,0.709,0.709,0.704,0.704,0.701,0.698,0.698,0.695,0.693,0.693,0.691,0.689,0.689,0.688,0.687,0.686,0.686,0.686,0.686,0.686,0.686,0.686,0.686,0.686,0.686,0.686,0.686,0.686,0.685,0.685,0.685,0.685,0.685,0.685,0.685,0.688,0.685,0.685,0.687,0.687,0.687,0.687,0.687,0.687,0.685,0.685,0.684,0.684,0.684,0.683,0.683,0.684,0.684,0.684,0.685,0.686,0.686,0.687,0.687,0.687,0.689,0.69,0.691,0.691,0.691,0.691,0.691,0.692,0.692,0.692,0.691,0.691,0.69,0.689,0.689,0.687,0.685,0.685,0.683,0.681,0.681,0.678,0.675,0.675,0.672,0.666,0.666,0.664,0.663,0.663,0.661,0.659,0.659,0.658,0.656,0.656,0.655,0.655,0.655,0.655,0.655,0.655,0.655,0.655,0.655,0.656,0.656,0.656,0.657,0.657,0.657,0.657,0.657,0.657,0.662,0.664,0.664,0.666,0.668,0.671,0.671,0.673,0.674,0.676,0.676,0.677,0.678,0.678,0.677,0.677,0.677,0.678,0.678,0.678,0.678,0.679,0,0.679,0.678,0.678,0.678,0.677,0.677,0.677,0.677,0.677,0.675,0.673,0.673,0.67,0.668,0.668,0.666,0.666
0.72,0.72,0.723,0.725,0.727,0.727,0.73,0.732,0.732,0.734,0.735,0.737,0.737,0,0,0,0,0,0,0,0,0,0,0,0,0,0,0,0,0,0,0,0,0,0,1.037,1.037,1.037,1.038,1.04,1.04,1.04,1.041,1.041,1.041,0,0,0,0,0,0,0,0,0,0,0,0,0,0,0,0,0,0,0,0,0,0,0,0,0,0,0,0,0,0,0,0,0,0,0,0,0,0.681,0.681,0.681,0.681,0.681,0.68,0.68,0.68,0.68,0.68,0.68,0.68,0.68,0.68,0.68,0.679,0.679,0.679,0.678,0.677,0.677,0.677,0,0,0,0,0,0,0,0,0,0,0,0,0,0,0,0.606,0.606,0.606,0.606,0.606,0.606,0.606,0.606,0.606,0.606,0.606,0.606,0.605,0.605,0.608,0.599,0.599,0.596,0.591,0.591,0.586,0.586,0.582,0.577,0.577,0.573,0.572,0.572,0.57,0.57,0.57,0.57,0.569,0.569,0.569,0.568,0.568,0.568,0.568,0.568,0.569,0.569,0.569,0.569,0.569,0.569,0.57,0.569,0.569,0.569,0.569,0.569,0.568,0.568,0.567,0.567,0,0,0,0,0,0,0,0,0,0,0,0,0,0,0,0,0,0,0,0,0,0,0,0,0,0,0,0,0,0,0,0.524,0.524,0.524,0.524,0.524,0.524,0.524,0.524,0.524,0.524,0.524,0.523,0.523,0,0,0,0,0,0,0,0,0,0,0,0,0,0,0.608,0.608,0.608,0.609,0.61,0.61,0.61,0.61,0.61,0.61,0.61,0.61,0.61,0.61,0.61,0.61,0.61,0.61,0.61,0.609,0.609,0.609,0.608,0.607,0.607,0.607,0.606,0.606,0.605,0.604,0.604,0.603,0.602,0.602,0.6,0.599,0.599,0.598,0.597,0.596,0.596,0.595,0.594,0.594,0.593,0.591,0.591,0.59,0.589,0.589,0.588,0.587,0.587,0.586,0.585,0.585,0.583,0.583,0.585,0.585,0.585,0,0,0.581,0.581,0.581,0.581,0.58,0.576,0.576,0.58,0.581,0.581,0.582,0.582,0.582,0.583,0.584,0.585,0.585,0.585,0.586,0.584,0.584,0.585,0.585,0.585,0.586,0,0.585,0.584,0.584,0.584,0.583,0.583,0.582,0.582,0.582,0.582,0.582,0.583,0.584,0.584,0.585,0.586,0.586,0.587,0.588,0.59,0.59,0.591,0.591,0.591,0.591,0.591,0.591,0.591,0.591,0.591,0.591,0.591,0.591,0.59,0.59,0.59,0.589,0.588,0.588,0.587,0.586,0.586,0.586,0.585,0.585,0.584,0.583,0.583,0.583,0.582,0.582,0.582,0.582,0.582,0.582,0.582,0.582,0.582,0.582,0.581,0.581,0.581,0.581,0.58,0.58,0.58,0.579,0.579,0.579,0.578,0.578,0.578,0.578,0.578,0.578,0.579,0.579,0.578,0.578,0.579,0.579,0.579,0.579,0.58,0.58,0.581,0.582,0.583,0.583,0.583,0.584,0.584,0.585,0.586,0.587,0.587,0.587,0.588,0.588,0.589,0.589,0.589,0.59,0.59,0.59,0.589,0.589,0.589,0.589,0.589,0.589,0.589,0.589,0.589,0.589,0.589,0.589,0.59,0.59,0.59,0.591,0.591,0.823,0.822,0.822,0.822,0.822,0.822,0.824,0.824,0.824,0.824,0.824,0.824,0.824,0.824,0.824,0.825,0.826,0.826,0.826,0,0,0,0,0,0.833,0.833,0.834,0.832,0.831,0.831,0,0,0,0,0,0,0,0,0,0,0,0.743,0.739,0.739,0.739,0.739,0.739,0.739,0.739,0.738,0.737,0.737,0.737,0.735,0.735,0.734,0.732,0.732,0.729,0.729,0.729,0.727,0.725,0.725,0.723,0.721,0.721,0.72,0.718,0.718,0.716,0.715,0.715,0.714,0.713,0.712,0.712,0.71,0.707,0.707,0.703,0.703,0.699,0.696,0.696,0.693,0.691,0.691,0.689,0.688,0.688,0.687,0.686,0.686,0.686,0.685,0.685,0.685,0.685,0.686,0.686,0.686,0.686,0.687,0.687,0.687,0.687,0.687,0.687,0.687,0.687,0.687,0.688,0.688,0.687,0.687,0.687,0.687,0.687,0.687,0.687,0.687,0.685,0.685,0.684,0.684,0.684,0.683,0.683,0.684,0.684,0.684,0.685,0.686,0.686,0.687,0.687,0.687,0.688,0.689,0.689,0.69,0.691,0.691,0.691,0.691,0.691,0.691,0.691,0.691,0.69,0.689,0.689,0.687,0.685,0.685,0.683,0.681,0.681,0.678,0.675,0.675,0.672,0.669,0.669,0.666,0.665,0.665,0.663,0.661,0.661,0.66,0.658,0.658,0.658,0.657,0.657,0.656,0.656,0.656,0.656,0.656,0.656,0.657,0.657,0.658,0.658,0.658,0.658,0.659,0.66,0.66,0.662,0.664,0.664,0.666,0.668,0.671,0.671,0.673,0.674,0.676,0.676,0.677,0.678,0.678,0.677,0.677,0.677,0.678,0.678,0.678,0.678,0.679,0.686,0.679,0.678,0.678,0.678,0.677,0.677,0.677,0.677,0.677,0.675,0.673,0.673,0.67,0.668,0.668,0.666,0.666
0.724,0.724,0.727,0.729,0.731,0.731,0.733,0.735,0.735,0.736,0.736,0.737,0.737,0,0,0,0,0,0,0,0,0,0,0,0,0,0,0,0,0,0,0,0,0,1.035,1.035,1.036,1.036,1.037,1.037,1.037,1.038,1.038,1.041,1.041,1.041,0,0,0,0,0,0,0,0,0,0,0,0,0,0,0,0,0,0,0,0,0,0,0,0,0,0,0,0,0,0,0,0,0,0,0,0,0,0,0,0,0,0,0,0,0.68,0.68,0.68,0.68,0.68,0.679,0.679,0.678,0.678,0.678,0.677,0.676,0.676,0.676,0,0,0,0,0,0,0,0,0,0,0,0,0,0,0,0.616,0.616,0.614,0.612,0.612,0.611,0.611,0.611,0.611,0.611,0.61,0.61,0.61,0.608,0.608,0.606,0.606,0,0,0,0,0.59,0.59,0.586,0.583,0.583,0.58,0.578,0.578,0.576,0.575,0.575,0.573,0.572,0.572,0.571,0.571,0.571,0.57,0.57,0.571,0.571,0.571,0.571,0.571,0.572,0.572,0.572,0.572,0.571,0.571,0.571,0.571,0,0,0,0,0,0,0,0,0,0,0,0,0,0,0,0,0,0,0,0,0,0,0,0,0,0,0,0,0,0,0,0,0,0,0.525,0.525,0.525,0.524,0.524,0.524,0.524,0.524,0.524,0.524,0.524,0.524,0.524,0,0,0,0,0,0,0,0,0,0,0,0,0,0,0.608,0.608,0.608,0.608,0.609,0.609,0.609,0.609,0.61,0.609,0.609,0.61,0.609,0.608,0.608,0.608,0.608,0.608,0.608,0.607,0.607,0.607,0.606,0.606,0.606,0.606,0.604,0.604,0.603,0.602,0.602,0.602,0.6,0.6,0.599,0.598,0.598,0.596,0.596,0.596,0.595,0.595,0.594,0.594,0.593,0.592,0.592,0.591,0.59,0.59,0.59,0.589,0.589,0.588,0.587,0.587,0.586,0.585,0.585,0.585,0.585,0.587,0,0.581,0.581,0.581,0.581,0.58,0.58,0.58,0.58,0.581,0.581,0.582,0.582,0.582,0.583,0.584,0.585,0.585,0.585,0.586,0.586,0.586,0.586,0.586,0.586,0.586,0.587,0.586,0.585,0.585,0.585,0.584,0.584,0.584,0.584,0.584,0.584,0.584,0.584,0.585,0.585,0.585,0.586,0.586,0.587,0.588,0.589,0.589,0.59,0.59,0.59,0.591,0.591,0.591,0.59,0.59,0.59,0.59,0.59,0.59,0.589,0.589,0.589,0.588,0.588,0.588,0.587,0.586,0.586,0.585,0.585,0.585,0.584,0.583,0.583,0.582,0.581,0.581,0.581,0.581,0.581,0.581,0.581,0.581,0.581,0.58,0.579,0.579,0.579,0.579,0.579,0.578,0.578,0.577,0.577,0.577,0.577,0.577,0.577,0.577,0.577,0.577,0.577,0.578,0.578,0.578,0.578,0.578,0.578,0.579,0.58,0.58,0.58,0.581,0.582,0.582,0.583,0.584,0.584,0.585,0.586,0.586,0.586,0.587,0.588,0.588,0.589,0.589,0.589,0.589,0.589,0.589,0.589,0.589,0.589,0.589,0.589,0.589,0.589,0.589,0.589,0.589,0.589,0.589,0.59,0.59,0.59,0.591,0.591,0.825,0.825,0.825,0.825,0.825,0.826,0.826,0.826,0.826,0.826,0.826,0.826,0.826,0.827,0.827,0.828,0.828,0.828,0.83,0.835,0.835,0.835,0,0,0.835,0.834,0.834,0.833,0.831,0.831,0,0,0,0,0,0,0,0,0,0,0,0.743,0.743,0.743,0.744,0.744,0.744,0.743,0.743,0.743,0.742,0.742,0.741,0.739,0.739,0.738,0.736,0.736,0.734,0.733,0.733,0.731,0.728,0.728,0.727,0.724,0.724,0.722,0.72,0.719,0.718,0.716,0.715,0.714,0.713,0.711,0.711,0.709,0.707,0.705,0.701,0.701,0.697,0.694,0.694,0.691,0.689,0.689,0.687,0.687,0.687,0.685,0.685,0.685,0.685,0.684,0.684,0.684,0.684,0.685,0.685,0.685,0.685,0.686,0.686,0.687,0.688,0.688,0.688,0.688,0.689,0.689,0.689,0.689,0.689,0.689,0.689,0.689,0.688,0.687,0.687,0.687,0.687,0.687,0.686,0.685,0.685,0.684,0.684,0.684,0.684,0.685,0.685,0.686,0.686,0.687,0.687,0.687,0.688,0.688,0.688,0.69,0.69,0.69,0.69,0.69,0.69,0.69,0.69,0.69,0.69,0.689,0.689,0.687,0.686,0.686,0.684,0.683,0.683,0.679,0.677,0.677,0.674,0.672,0.672,0.67,0.668,0.668,0.666,0.664,0.664,0.663,0.661,0.661,0.66,0.659,0.659,0.659,0.658,0.658,0.658,0.658,0.658,0.659,0.659,0.659,0.659,0.659,0.66,0.66,0.662,0.662,0.664,0.667,0.67,0.67,0.672,0.675,0.675,0.678,0.681,0.683,0.683,0.685,0.691,0.691,0.686,0.686,0.686,0.686,0.686,0.686,0.686,0.686,0.686,0.686,0.685,0.685,0.685,0.684,0.684,0.685,0.683,0.682,0.682,0.679,0.677,0.677,0.674,0.672,0.672,0.67
0.727,0.727,0.73,0.733,0.734,0.734,0.736,0.737,0.738,0.738,0.738,0.739,0.739,0,0,0,0,0,0,0,0,0,0,0,0,0,0,0,0,0,0,0,0,0,1.035,1.035,1.036,1.036,1.037,1.037,1.037,1.038,1.038,1.041,1.041,1.041,0,0,0,0,0,0,0,0,0,0,0,0,0,0,0,0,0,0,0,0,0,0,0,0,0,0,0,0,0,0,0,0,0,0,0,0,0,0,0,0,0,0,0,0,0.68,0.68,0.68,0.68,0.68,0.679,0.679,0.678,0.678,0.678,0.677,0.676,0.676,0.676,0,0,0,0,0,0,0,0,0,0,0,0,0,0,0,0,0,0,0,0.615,0.615,0.614,0.614,0.614,0.614,0.614,0.614,0.613,0.612,0.612,0.612,0,0,0,0,0,0.597,0.597,0.593,0.59,0.59,0.587,0.584,0.584,0.581,0.579,0.579,0.578,0.572,0.572,0.571,0.571,0.571,0.57,0.57,0.571,0.571,0.573,0.573,0.573,0.574,0.574,0.574,0.574,0.573,0.573,0.573,0,0,0,0,0,0,0,0,0,0,0,0,0,0,0,0,0,0,0,0,0,0,0,0,0,0,0,0,0,0,0,0,0,0.525,0.525,0.525,0.525,0.525,0.524,0.524,0.524,0.524,0.524,0.524,0.524,0.524,0.524,0.523,0.523,0.523,0,0,0,0,0,0,0,0,0,0,0,0,0.608,0.608,0.608,0.608,0.609,0.609,0.609,0.609,0.61,0.609,0.609,0.61,0.609,0.608,0.608,0.608,0.608,0.608,0.608,0.607,0.607,0.607,0.606,0.606,0.606,0.606,0.604,0.604,0.603,0.602,0.602,0.602,0.6,0.6,0.599,0.598,0.598,0.596,0.596,0.596,0.595,0.595,0.594,0.594,0.593,0.592,0.592,0.591,0.591,0.591,0.591,0.59,0.59,0.59,0.589,0.589,0.588,0.588,0.588,0.587,0.587,0.587,0,0.584,0.584,0.584,0.583,0.583,0.583,0.583,0.583,0,0.583,0.583,0.584,0.584,0.584,0.585,0.586,0.586,0.586,0.586,0.586,0.586,0.586,0.586,0.587,0.587,0.587,0.587,0.587,0.587,0.586,0.585,0.585,0.585,0.585,0.585,0.585,0.585,0.585,0.585,0.585,0.586,0.586,0.586,0.587,0.588,0.589,0.589,0.59,0.59,0.59,0.591,0.591,0.591,0.59,0.59,0.59,0.59,0.59,0.59,0.589,0.589,0.589,0.588,0.588,0.588,0.587,0.586,0.586,0.585,0.585,0.585,0.584,0.583,0.583,0.582,0.581,0.581,0.581,0.581,0.581,0.581,0.581,0.581,0.581,0.58,0.579,0.579,0.579,0.579,0.579,0.578,0.578,0.577,0.577,0.577,0.577,0.577,0.577,0.577,0.577,0.577,0.577,0.578,0.578,0.578,0.578,0.578,0.578,0.579,0.58,0.58,0.58,0.581,0.582,0.582,0.583,0.584,0.584,0.585,0.586,0.586,0.586,0.587,0.588,0.588,0.589,0.589,0.589,0.589,0.589,0.589,0.589,0.589,0.589,0.589,0.589,0.589,0.589,0.589,0.589,0.589,0.589,0.589,0.59,0.59,0.59,0.826,0.826,0.828,0.827,0.827,0.827,0.827,0.828,0.828,0.83,0.829,0.829,0.829,0.829,0.829,0.83,0.83,0.831,0.832,0.832,0.832,0.835,0.835,0.835,0,0,0.837,0.836,0.836,0.834,0.834,0,0,0,0,0,0,0,0,0,0,0,0,0,0,0,0,0,0.751,0.751,0.751,0.749,0.748,0.747,0.747,0.745,0.743,0.743,0.741,0.739,0.739,0.737,0.735,0.735,0.733,0.73,0.73,0.727,0.724,0.724,0.722,0.719,0.719,0.717,0.715,0.715,0.713,0.711,0.711,0.709,0.709,0.705,0.701,0.701,0.697,0.694,0.694,0.691,0.689,0.689,0.687,0.687,0.687,0.685,0.685,0.685,0.685,0.684,0.684,0.684,0.684,0.685,0.685,0.685,0.685,0.686,0.686,0.687,0.688,0.688,0.688,0.689,0.689,0.689,0.69,0.69,0.69,0.69,0.689,0.689,0.689,0.689,0.689,0.688,0.687,0.687,0.686,0.685,0.685,0.685,0.685,0.685,0.685,0.685,0.685,0.686,0.686,0.687,0.687,0.687,0.688,0.688,0.688,0.69,0.69,0.69,0.69,0.69,0.69,0.69,0.69,0.69,0.69,0.689,0.689,0.688,0.686,0.686,0.684,0.683,0.683,0,0,0,0.676,0.674,0.674,0.672,0.671,0.669,0.669,0.667,0.666,0.666,0.664,0.663,0.663,0.662,0.661,0.661,0.661,0.66,0.66,0.66,0.66,0.66,0.66,0.661,0.661,0.66,0.66,0.662,0.664,0.664,0.666,0.67,0.673,0.673,0.677,0.683,0.683,0.683,0.686,0.688,0.688,0.69,0.691,0.691,0.691,0.691,0.692,0.692,0.692,0.692,0.693,0.692,0.692,0.692,0.691,0.69,0.69,0.69,0.69,0.69,0.688,0.688,0,0.685,0.682,0.682,0.68,0.677,0.677,0.675
0.727,0.727,0.73,0.733,0.734,0.734,0.736,0.737,0.738,0.738,0.738,0.739,0.739,0,0,0,0,0,0,0,0,0,0,0,0,0,0,0,0,0,0,0,1.037,1.037,1.035,1.035,1.036,1.036,1.037,1.037,1.037,1.037,1.038,1.038,1.038,1.04,1.04,1.04,0,0,0,0,0,0,0,0,0,0,0,0,0,0,0,0,0,0,0,0,0,0,0,0,0,0,0,0,0,0,0,0,0,0,0,0,0,0,0,0,0,0,0.68,0.68,0.68,0.68,0.679,0.678,0.678,0.677,0.677,0.677,0.676,0.674,0.674,0.674,0,0,0,0,0,0,0,0,0,0,0,0,0,0,0,0,0,0,0,0.615,0.615,0.614,0.614,0.614,0.614,0.614,0.614,0.613,0.612,0.612,0.612,0.614,0.614,0,0,0,0.597,0.597,0.593,0.59,0.59,0.587,0.584,0.584,0.581,0.579,0.579,0.578,0.576,0.576,0.575,0.574,0.574,0.573,0.573,0.573,0.573,0.573,0.573,0.573,0.574,0.574,0.574,0.574,0.573,0.573,0.573,0.575,0,0,0,0,0,0,0,0,0,0,0,0,0,0,0,0,0,0,0,0,0,0,0,0,0,0,0,0,0,0,0,0,0.525,0.525,0.525,0.525,0.525,0.525,0.525,0.524,0.524,0.524,0.524,0.524,0.524,0.524,0.523,0.523,0.523,0,0,0,0,0,0,0,0,0,0,0,0,0.608,0.608,0.608,0.607,0.607,0.608,0.608,0.608,0.609,0.608,0.608,0.608,0.608,0.608,0.608,0.607,0.606,0.606,0.606,0.606,0.605,0.605,0.605,0.605,0.605,0.604,0.603,0.603,0.602,0.601,0.601,0.6,0.6,0.6,0.599,0.597,0.597,0.596,0.596,0.596,0.595,0.595,0.594,0.594,0.593,0.592,0.592,0.591,0.591,0.591,0.591,0.59,0.59,0.59,0.589,0.589,0.588,0.588,0.588,0.587,0.587,0.587,0.587,0.584,0.584,0.584,0.583,0.583,0.583,0.583,0.583,0.583,0.583,0.583,0.584,0.584,0.584,0.585,0.586,0.586,0.586,0.586,0.586,0.586,0.586,0.586,0.587,0.587,0.587,0.587,0.587,0.587,0.586,0.585,0.585,0.585,0.585,0.585,0.585,0.585,0.585,0.585,0.585,0.586,0.586,0.586,0.587,0.588,0.589,0.589,0.589,0.589,0.589,0.589,0.589,0.589,0.589,0.589,0.589,0.589,0.589,0.589,0.589,0.589,0.589,0.588,0.588,0.588,0.587,0.586,0.586,0.585,0.585,0.585,0.584,0.583,0.583,0.582,0.581,0.581,0.581,0.58,0.58,0.58,0.58,0.579,0.579,0.578,0.578,0.578,0.577,0.577,0.577,0.576,0.576,0.576,0.576,0.576,0.575,0.575,0.575,0.576,0.577,0.577,0.577,0.577,0.577,0.578,0.578,0.578,0.578,0.579,0.579,0.579,0.58,0.581,0.582,0.582,0.583,0.584,0.584,0.585,0.586,0.586,0.586,0.587,0.588,0.588,0.589,0.589,0.589,0.589,0.589,0.589,0.589,0.589,0.589,0.589,0.588,0.588,0.588,0.588,0.588,0.588,0.589,0.589,0.589,0.589,0.59,0.826,0.826,0.828,0.827,0.827,0.827,0.827,0.828,0.828,0.83,0.829,0.829,0.829,0.829,0.829,0.83,0.83,0.831,0.832,0.832,0.832,0.835,0.835,0.835,0.838,0.838,0.837,0.836,0.836,0.834,0.833,0.831,0.831,0.831,0.827,0.827,0.824,0.822,0.822,0.822,0,0,0,0,0,0,0,0.759,0.751,0.751,0.751,0.749,0.748,0.747,0.747,0.745,0.743,0.743,0.741,0.739,0.739,0.737,0.735,0.735,0.733,0.73,0.73,0.727,0.724,0.724,0.722,0.719,0.719,0.717,0.715,0.714,0.712,0.711,0.709,0.706,0.706,0.703,0.699,0.699,0.697,0.692,0.692,0.69,0.688,0.688,0.687,0.685,0.685,0.684,0.684,0.684,0.683,0.683,0.684,0.684,0.684,0.684,0.684,0.684,0.685,0.686,0.686,0.687,0.688,0.688,0.688,0.689,0.689,0.689,0.69,0.69,0.69,0.69,0.689,0.689,0.689,0.689,0.689,0.688,0.687,0.687,0.686,0.685,0.685,0.685,0.685,0.685,0.685,0.685,0.685,0.686,0.686,0.686,0.687,0.687,0.687,0.688,0.688,0.688,0.689,0.689,0.689,0.689,0.689,0.689,0.689,0.689,0.689,0.688,0.688,0.687,0.686,0.685,0.684,0.683,0.683,0,0.681,0.679,0.676,0.674,0.674,0.672,0.671,0.669,0.669,0.667,0.666,0.666,0.664,0.663,0.663,0.662,0.661,0.661,0.661,0.66,0.66,0.66,0.66,0.66,0.66,0.661,0.661,0.66,0.66,0.662,0.664,0.664,0.666,0.67,0.673,0.673,0.677,0.683,0.683,0.683,0.686,0.688,0.688,0.69,0.691,0.691,0.691,0.691,0.692,0.692,0.692,0.692,0.693,0.692,0.692,0.692,0.691,0.69,0.69,0.69,0.69,0.69,0.688,0.688,0.692,0.685,0.682,0.682,0.68,0.677,0.677,0.675
0.731,0.734,0.734,0.735,0.735,0.735,0.737,0.738,0.739,0.739,0.739,0,0,0,0,0,0,0,0,0,0,0,0,0,0,0,0,0,0,0,0,1.037,1.037,1.037,1.036,1.036,1.036,1.036,1.036,1.037,1.037,1.037,1.037,1.038,1.038,1.038,1.038,1.038,0,0,0,0,0,0,0,0,0,0,0,0,0,0,0,0,0,0,0,0,0,0,0,0,0,0,0,0,0,0,0,0,0,0,0,0,0,0,0,0,0,0,0.68,0.679,0.679,0.679,0.678,0.677,0.677,0.676,0.676,0.676,0.674,0.672,0.672,0.672,0,0,0,0,0,0,0,0,0,0,0,0,0,0,0,0,0,0,0,0,0,0.618,0.617,0.617,0.617,0.616,0.616,0.616,0.616,0.616,0.614,0.614,0.614,0.616,0.614,0.611,0.611,0.608,0.608,0.597,0.593,0.593,0.59,0.59,0.587,0.584,0.584,0.582,0.58,0.58,0.579,0.577,0.577,0.576,0.576,0.576,0.576,0.576,0.576,0.576,0.575,0.575,0.576,0.576,0.575,0.575,0.575,0.575,0,0,0,0,0,0,0,0,0,0,0,0,0,0,0,0,0,0,0,0,0,0,0,0,0,0,0,0,0,0,0,0,0,0.524,0.524,0.525,0.525,0.524,0.524,0.524,0.524,0.524,0.524,0,0,0,0.523,0.523,0.523,0,0,0,0,0,0,0,0,0,0,0,0,0,0,0.605,0.605,0.607,0.607,0.607,0.607,0.607,0.607,0.607,0.607,0.606,0.606,0.606,0.605,0.605,0.605,0.604,0.603,0.603,0.603,0.603,0.602,0.602,0.602,0.601,0.601,0.6,0.6,0.6,0.599,0.598,0.598,0.597,0.596,0.596,0.595,0.595,0.595,0.595,0.594,0.594,0.594,0.593,0.592,0.592,0.592,0.591,0.591,0.591,0.591,0.591,0.59,0.59,0.59,0.59,0.589,0.589,0.589,0.588,0.587,0.587,0.586,0.585,0.585,0.584,0.583,0.583,0.583,0.583,0.583,0.583,0.584,0.584,0.584,0.584,0.585,0.586,0.586,0.586,0.586,0.586,0.587,0.587,0.588,0.588,0.588,0.588,0.588,0.588,0.588,0.587,0.587,0.587,0.587,0.587,0.587,0.587,0.587,0.587,0.587,0.587,0.587,0.587,0.587,0.588,0.588,0.588,0.588,0.588,0.589,0.589,0.589,0.589,0.589,0.589,0.589,0.588,0.588,0.588,0.588,0.588,0.588,0.588,0.588,0.588,0.588,0.587,0.586,0.586,0.585,0.585,0.585,0.584,0.583,0.583,0.582,0.581,0.581,0.581,0.58,0.58,0.58,0.579,0.578,0.578,0.577,0.576,0.576,0.576,0.576,0.576,0.575,0.575,0.575,0.575,0.575,0.575,0.575,0.575,0.576,0.577,0.577,0.577,0.577,0.577,0.578,0.578,0.578,0.578,0.579,0.579,0.579,0.58,0.581,0.582,0.582,0.583,0.584,0.584,0.585,0.586,0.586,0.586,0.587,0.588,0.588,0.589,0.589,0.589,0.589,0.589,0.589,0.589,0.589,0.589,0.588,0.588,0.588,0.588,0.588,0.588,0.588,0.588,0.588,0.589,0.589,0.589,0.829,0.83,0.83,0.83,0.83,0.831,0.831,0.832,0.832,0.832,0.832,0.832,0.832,0.832,0.832,0.833,0.833,0.834,0.835,0.835,0.835,0.836,0.837,0.837,0.838,0.838,0.838,0.837,0.836,0.835,0.833,0.831,0.831,0.83,0.827,0.827,0.824,0.822,0.822,0.819,0.819,0,0,0,0,0,0.775,0.759,0.759,0.756,0.752,0.752,0.75,0.75,0.75,0.748,0.747,0.747,0.745,0.743,0.743,0.74,0.738,0.738,0.736,0.733,0.733,0.729,0.726,0.726,0.722,0.719,0.719,0.715,0.715,0.711,0.708,0.708,0.706,0.703,0.703,0.7,0.696,0.696,0.693,0.69,0.69,0.688,0.686,0.686,0.685,0.684,0.684,0.683,0.682,0.682,0.682,0.682,0.683,0.683,0.683,0.683,0.684,0.684,0.685,0.686,0.686,0.687,0.688,0.688,0.688,0.689,0.69,0.69,0.69,0.691,0.691,0.69,0.69,0.69,0.69,0.689,0.689,0.689,0.688,0.688,0.687,0.686,0.686,0.685,0.685,0.685,0.685,0.685,0.685,0.686,0.686,0.686,0.687,0.687,0.687,0.687,0.687,0.687,0.687,0.688,0.687,0.687,0.688,0.687,0.687,0.687,0.687,0.687,0.687,0.686,0.686,0.685,0.685,0.684,0.684,0.684,0.681,0.679,0.679,0.677,0.676,0.676,0.675,0.673,0.673,0.671,0.67,0.67,0.668,0.666,0.666,0.665,0.664,0.664,0.663,0.663,0.663,0.663,0.663,0.663,0.663,0.663,0.662,0.662,0.662,0.663,0.666,0.666,0.668,0.672,0.676,0.676,0.68,0.684,0.687,0.687,0.69,0.693,0.694,0.694,0.695,0.696,0.696,0.696,0.697,0.697,0.697,0.697,0.698,0.697,0.697,0.697,0.696,0.695,0.695,0.695,0.695,0.695,0.693,0.692,0.692,0.689,0.686,0.686,0.686,0.681,0.681,0.679
0.734,0.736,0.736,0.737,0.738,0.738,0.739,0.739,0.74,0.74,0.74,0,0,0,0,0,0,0,0,0,0,0,0,0,0,0,0,0,0,0,0,1.037,1.037,1.037,1.036,1.036,1.036,1.036,1.036,1.037,1.037,1.037,1.037,1.038,1.038,1.038,1.038,1.038,0,0,0,0,0,0,0,0,0,0,0,0,0,0,0,0,0,0,0,0,0,0,0,0,0,0,0,0,0,0,0,0,0,0,0,0,0,0,0,0,0,0,0.68,0.679,0.679,0.679,0.678,0.677,0.677,0.676,0.676,0.676,0.674,0.672,0.672,0.672,0,0,0,0,0,0,0,0,0,0,0,0,0,0,0,0,0,0,0,0,0,0.622,0.621,0.621,0.62,0.62,0.62,0.619,0.619,0.618,0.618,0.617,0.616,0.616,0.614,0.611,0.611,0.608,0.608,0.603,0.603,0,0,0,0,0.59,0.588,0.588,0.585,0.584,0.584,0.582,0.582,0.579,0.579,0,0,0.578,0.578,0.578,0.578,0.578,0.578,0.578,0.578,0.578,0.578,0.578,0,0,0,0,0,0,0,0,0,0,0,0,0,0,0,0,0,0,0,0,0,0,0,0,0,0,0,0,0,0,0,0,0,0.524,0.524,0.525,0.525,0.524,0.524,0.524,0.524,0.524,0.524,0,0,0,0,0,0,0,0,0,0,0,0,0,0,0,0,0,0,0,0,0.605,0.605,0.607,0.607,0.607,0.607,0.607,0.607,0.607,0.607,0.606,0.606,0.606,0.605,0.605,0.605,0.604,0.603,0.603,0.603,0.603,0.602,0.602,0.602,0.601,0.601,0.6,0.6,0.6,0.599,0.598,0.598,0.597,0.596,0.596,0.595,0.595,0.595,0.595,0.594,0.594,0.594,0.593,0.592,0.592,0.592,0.592,0.592,0.591,0.591,0.591,0.591,0.59,0.59,0.59,0.589,0.589,0.589,0.588,0.587,0.587,0.586,0.585,0.585,0.584,0.583,0.583,0.583,0.583,0.583,0.583,0.584,0.584,0.584,0.584,0.585,0.586,0.586,0.586,0.586,0.586,0.587,0.587,0.588,0.588,0.588,0.588,0.588,0.588,0.588,0.588,0.588,0.588,0.588,0.588,0.588,0.588,0.587,0.587,0.587,0.587,0.587,0.588,0.588,0.588,0.588,0.588,0.588,0.588,0.589,0.589,0.589,0.589,0.589,0.589,0.589,0.588,0.588,0.588,0.588,0.588,0.588,0.588,0.588,0.588,0.588,0.588,0.587,0.587,0.587,0.587,0.587,0.585,0.585,0.584,0.584,0.583,0.582,0.582,0.581,0.58,0.58,0.579,0.578,0.578,0.577,0.576,0.576,0.576,0.576,0.576,0.575,0.575,0.575,0.575,0.575,0.575,0.575,0.575,0.576,0.577,0.577,0.577,0.577,0.577,0.578,0.578,0.579,0.579,0.579,0.58,0.58,0.581,0.582,0.582,0.582,0.583,0.584,0.584,0.585,0.586,0.587,0.587,0.587,0.588,0.588,0.589,0.589,0.589,0.589,0.589,0.589,0.589,0.589,0.589,0.588,0.588,0.588,0.588,0.588,0.588,0.588,0.588,0.588,0.589,0.589,0.589,0.832,0.833,0.834,0.834,0.834,0.834,0.836,0.836,0.836,0.836,0.836,0.836,0.836,0.836,0.837,0.837,0.837,0.837,0.838,0.838,0.838,0.838,0.84,0.84,0.84,0.84,0.839,0.838,0.836,0.836,0.834,0.832,0.832,0.83,0.828,0.828,0.825,0.822,0.822,0.819,0.819,0,0,0,0,0,0.775,0.767,0.767,0.767,0.757,0.757,0.754,0.752,0.752,0.751,0.75,0.75,0.748,0.746,0.746,0.743,0.741,0.741,0.738,0.735,0.735,0.731,0.727,0.727,0.722,0.719,0.719,0.715,0.715,0.711,0.708,0.708,0.706,0.703,0.703,0.7,0.696,0.696,0.693,0.69,0.69,0.688,0.686,0.686,0.685,0.684,0.684,0.683,0.682,0.682,0.682,0.682,0.683,0.683,0.683,0.683,0.684,0.684,0.685,0.686,0.686,0.687,0.688,0.689,0.689,0.689,0.69,0.69,0.691,0.691,0.691,0.691,0.691,0.691,0.69,0.69,0.69,0.689,0.689,0.689,0.688,0.687,0.687,0.687,0.686,0.686,0.686,0.686,0.686,0.686,0.686,0.686,0.687,0.687,0.687,0.687,0.687,0.687,0.687,0.688,0.687,0.687,0.688,0.687,0.687,0.687,0.687,0.687,0.687,0.686,0.686,0.685,0.685,0.685,0.684,0.684,0.682,0.682,0.682,0.68,0.68,0.68,0.678,0.677,0.677,0.675,0.674,0.674,0.671,0.67,0.67,0.669,0.667,0.667,0.666,0.666,0.666,0.665,0.664,0.664,0.664,0.663,0.663,0.663,0.663,0.665,0.667,0.667,0.671,0.675,0.678,0.678,0.683,0.687,0.691,0.691,0.694,0.696,0.698,0.698,0.699,0.7,0.7,0.7,0.701,0.702,0.701,0.701,0.702,0.701,0.7,0.7,0.699,0.699,0.699,0.699,0.698,0.697,0.697,0.695,0.693,0.693,0.69,0.688,0.688,0.686,0.686,0.683
0.734,0.736,0.736,0.737,0.738,0.738,0.739,0.739,0.74,0.74,0.74,0,0,0,0,0,0,0,0,0,0,0,0,0,0,0,0,0,0,1.038,1.038,1.037,1.037,1.037,1.036,1.036,1.036,1.036,1.036,1.037,1.036,1.036,1.037,1.037,1.037,1.037,1.037,1.037,0,0,0,0,0,0,0,0,0,0,0,0,0,0,0,0,0,0,0,0,0,0,0,0,0,0,0,0,0,0,0,0,0,0,0,0,0,0,0,0,0.679,0.679,0.679,0.679,0.679,0.679,0.678,0.677,0.676,0.675,0.674,0.674,0.674,0.672,0.672,0.672,0,0,0.663,0.663,0.661,0.659,0.658,0.658,0.656,0.654,0.654,0.651,0.651,0.648,0.642,0.642,0.638,0.634,0.634,0.63,0.627,0.622,0.621,0.621,0.62,0.62,0.62,0.619,0.619,0.618,0.618,0.617,0.616,0.616,0.614,0.611,0.611,0.608,0.608,0.603,0.603,0.605,0.601,0.599,0.599,0.59,0.588,0.588,0.585,0.584,0.584,0.582,0.582,0.579,0.579,0,0,0.578,0.578,0.578,0.578,0.578,0.578,0.578,0.578,0.578,0.578,0.578,0,0,0,0,0,0,0,0,0,0,0,0,0,0,0,0,0,0,0,0,0,0,0,0,0,0,0,0,0,0,0,0,0,0.524,0.524,0.525,0.524,0.524,0.524,0.524,0.524,0.524,0.524,0.524,0.524,0.524,0,0,0,0,0,0,0,0,0,0,0,0,0,0.561,0.56,0.56,0.56,0.605,0.601,0.601,0.601,0.606,0.606,0.606,0.606,0.605,0.605,0.604,0.603,0.603,0.602,0.601,0.601,0.601,0.6,0.6,0.6,0.599,0.599,0.599,0.599,0.599,0.599,0.598,0.597,0.597,0.597,0.597,0.597,0.596,0.596,0.596,0.595,0.594,0.594,0.594,0.594,0.593,0.593,0.593,0.592,0.592,0.592,0.592,0.592,0.591,0.591,0.591,0.591,0.59,0.59,0.59,0.589,0.589,0.589,0.588,0.587,0.587,0.586,0.585,0.585,0.584,0.583,0.583,0.583,0.583,0.583,0.583,0.583,0.583,0.583,0.583,0.584,0.585,0.585,0.585,0.586,0.586,0.586,0.587,0.587,0.587,0.588,0.588,0.588,0.588,0.588,0.588,0.588,0.588,0.588,0.588,0.588,0.588,0.587,0.587,0.587,0.587,0.587,0.588,0.588,0.588,0.588,0.588,0.588,0.588,0.588,0.588,0.588,0.588,0.588,0.588,0.588,0.588,0.588,0.588,0.588,0.588,0.588,0.588,0.588,0.588,0.588,0.588,0.587,0.587,0.587,0.587,0.587,0.585,0.585,0.584,0.584,0.583,0.582,0.582,0.581,0.58,0.58,0.579,0.577,0.577,0.577,0.576,0.576,0.575,0.575,0.576,0.575,0.575,0.575,0.575,0.575,0.575,0.575,0.575,0.576,0.577,0.577,0.577,0.577,0.577,0.578,0.578,0.579,0.579,0.579,0.58,0.58,0.581,0.582,0.582,0.582,0.583,0.584,0.584,0.585,0.586,0.586,0.586,0.587,0.587,0.587,0.588,0.588,0.588,0.588,0.588,0.588,0.588,0.588,0.588,0.588,0.587,0.587,0.586,0.586,0.587,0.587,0.587,0.587,0.587,0.587,0.588,0.832,0.833,0.834,0.834,0.834,0.834,0.836,0.836,0.836,0.836,0.836,0.836,0.836,0.836,0.837,0.837,0.837,0.837,0.838,0.838,0.838,0.838,0.84,0.84,0.84,0.84,0.839,0.838,0.836,0.836,0.834,0.832,0.832,0.83,0.828,0.828,0.825,0.822,0.822,0.819,0.819,0,0,0,0,0,0.775,0.767,0.767,0.767,0.757,0.757,0.754,0.752,0.752,0.751,0.75,0.75,0.748,0.746,0.746,0.743,0.741,0.741,0.738,0.735,0.735,0.73,0.726,0.726,0.721,0.719,0.717,0.712,0.712,0.709,0.705,0.705,0.702,0.7,0.7,0.697,0.693,0.693,0.69,0.688,0.688,0.687,0.685,0.685,0.684,0.682,0.682,0.682,0.682,0.682,0.682,0.682,0.682,0.682,0.682,0.682,0.683,0.683,0.684,0.685,0.685,0.687,0.688,0.689,0.689,0.689,0.69,0.69,0.691,0.691,0.691,0.691,0.691,0.691,0.69,0.69,0.69,0.689,0.689,0.689,0.688,0.687,0.687,0.687,0.686,0.686,0.686,0.686,0.686,0.686,0.686,0.686,0.686,0.686,0.686,0.686,0.686,0.686,0.686,0.686,0.686,0.686,0.686,0.686,0.686,0.686,0.686,0.686,0.686,0.685,0.685,0.685,0.685,0.684,0.684,0.684,0.682,0.682,0.682,0.68,0.68,0.68,0.678,0.677,0.677,0.675,0.674,0.674,0.671,0.67,0.67,0.669,0.667,0.667,0.666,0.666,0.666,0.665,0.664,0.664,0.664,0.663,0.663,0.663,0.663,0.665,0.667,0.667,0.671,0.675,0.678,0.678,0.683,0.687,0.691,0.691,0.694,0.696,0.698,0.698,0.699,0.7,0.7,0.7,0.701,0.702,0.701,0.701,0.702,0.701,0.7,0.7,0.699,0.699,0.699,0.699,0.698,0.697,0.697,0.695,0.693,0.693,0.69,0.688,0.688,0.686,0.686,0.683
0.737,0.739,0.739,0.74,0.741,0.741,0.741,0.741,0.742,0.74,0.74,0,0,0,0,0,0,0,0,0,0,0,0,0,0,0,0,0,0,1.038,1.038,1.038,1.038,1.038,1.037,1.037,1.037,1.036,1.036,1.037,1.036,1.036,1.037,1.037,1.037,1.037,1.037,1.037,0,0,0,0,0,0,0,0,0,0,0,0,0,0,0,0,0,0,0,0,0,0,0,0,0,0,0,0,0,0,0,0,0,0,0,0,0,0,0,0,0.679,0.679,0.679,0.679,0.679,0.679,0,0,0.674,0.673,0.673,0.673,0.671,0.671,0.669,0.666,0.666,0.664,0.662,0.662,0.661,0.659,0.658,0.658,0.656,0.654,0.654,0.651,0.651,0.648,0.642,0.642,0.638,0.634,0.634,0.63,0.627,0.627,0.624,0.623,0.623,0.623,0.623,0.623,0.623,0.622,0.622,0.621,0.619,0.619,0.616,0.614,0.614,0.611,0.608,0.608,0.605,0.605,0.601,0.599,0.599,0.595,0.595,0,0.594,0.589,0.589,0.586,0.583,0.583,0.583,0.584,0.584,0.581,0.581,0.581,0.58,0.58,0.58,0.58,0.58,0.58,0.58,0.58,0.581,0.581,0.581,0.581,0,0,0,0,0,0,0,0,0,0,0,0,0,0,0,0,0,0,0,0,0,0,0,0,0,0,0,0,0,0,0,0,0.524,0.524,0.524,0.524,0.524,0.524,0.524,0.524,0.524,0.524,0,0,0,0,0,0,0,0,0,0,0,0,0,0.561,0.56,0.56,0.56,0.561,0.601,0.601,0.601,0.602,0.602,0.602,0.603,0.602,0.602,0.602,0.6,0.6,0.6,0.599,0.599,0.598,0.597,0.597,0.596,0.596,0.596,0.596,0.596,0.596,0.596,0.596,0.596,0.596,0.595,0.595,0.596,0.595,0.595,0.595,0.594,0.594,0.594,0.594,0.594,0.593,0.593,0.593,0.593,0.593,0.592,0.592,0.592,0.591,0.591,0.591,0.59,0.59,0.59,0.589,0.589,0.589,0.588,0.588,0.587,0.587,0.586,0.585,0.585,0.584,0.583,0.583,0.582,0.582,0.582,0.582,0.582,0.582,0.582,0.582,0.582,0.583,0.583,0.584,0.585,0.585,0.585,0.586,0.586,0.587,0.588,0.588,0.588,0.589,0.589,0.589,0.589,0.589,0.589,0.589,0.588,0.588,0.588,0.588,0.588,0.588,0.588,0.588,0.587,0.587,0.587,0.587,0.587,0.587,0.587,0.587,0.587,0.587,0.587,0.587,0.587,0.587,0.587,0.588,0.588,0.588,0.588,0.588,0.588,0.588,0.589,0.589,0.589,0.589,0.589,0.589,0.588,0.588,0.588,0.586,0.586,0.585,0.584,0.584,0.582,0.581,0.581,0.579,0.577,0.577,0.577,0.577,0.577,0.575,0.575,0.576,0.575,0.575,0.575,0.575,0.575,0.575,0.576,0.576,0.576,0.577,0.577,0.577,0.578,0.578,0.578,0.579,0.579,0.579,0.58,0.581,0.581,0.582,0.582,0.583,0.583,0.584,0.584,0.584,0.585,0.585,0.585,0.586,0.586,0.587,0.587,0.587,0.588,0.587,0.587,0.587,0.587,0.587,0.586,0.586,0.586,0.586,0.586,0.585,0.585,0.585,0.585,0.586,0.586,0.586,0.586,0.588,0.835,0.836,0.836,0.836,0.838,0.838,0.84,0.84,0.84,0.84,0.84,0.84,0.841,0.841,0.841,0.842,0.843,0.842,0.842,0.842,0.842,0.843,0.843,0.843,0.841,0.841,0.841,0.839,0.837,0.837,0.835,0.833,0.833,0.831,0.828,0.828,0.826,0.824,0.824,0.82,0.82,0,0.81,0.81,0,0.789,0.789,0.774,0.774,0.768,0.762,0.762,0.757,0.755,0.755,0.754,0.753,0.753,0.75,0.748,0.748,0.745,0.742,0.742,0.74,0.735,0.735,0.729,0.724,0.724,0.718,0.718,0.714,0.709,0.709,0.704,0.702,0.702,0.698,0.696,0.696,0.693,0.69,0.69,0.688,0.687,0.687,0.685,0.683,0.683,0.682,0.682,0.682,0.681,0.681,0.681,0.681,0.681,0.681,0.681,0.682,0.682,0.683,0.683,0.684,0.685,0.685,0.687,0.688,0.688,0.688,0.689,0.69,0.69,0.691,0.691,0.691,0.691,0.691,0.691,0.691,0.691,0.691,0.69,0.689,0.689,0.689,0.688,0.688,0.687,0.687,0.687,0.686,0.686,0.686,0.686,0.686,0.686,0.686,0.685,0.685,0.685,0.685,0.685,0.685,0.685,0.685,0.685,0.685,0.685,0.685,0.685,0.685,0.685,0.685,0.684,0.684,0.684,0.684,0.684,0.684,0.684,0.683,0.683,0.683,0.682,0.682,0.682,0.681,0.68,0.68,0.678,0.677,0.677,0.674,0.673,0.673,0.671,0.67,0.67,0.669,0.668,0.668,0.667,0.666,0.666,0.666,0.666,0.665,0.665,0.665,0.667,0.67,0.67,0.673,0.681,0.681,0.681,0.686,0.691,0.694,0.697,0.697,0.699,0.702,0.702,0.703,0.703,0.703,0.703,0.703,0.703,0.703,0.704,0.704,0.703,0.702,0.702,0.702,0.702,0.701,0.701,0.7,0.699,0.699,0.698,0.696,0.696,0.694,0.692,0.692,0.69,0.687,0.687
0.739,0.742,0.742,0.742,0.742,0.742,0.742,0.742,0,0,0,0,0,0,0,0,0,0,0,0,0,0,0,0,0,0,0,0,0,1.04,1.04,1.038,1.038,1.038,1.038,1.037,1.037,1.037,1.037,1.037,1.037,1.037,1.037,1.038,1.037,1.037,0,0,0,0,0,0,0,0,0,0,0,0,0,0,0,0,0,0,0,0,0,0,0,0,0,0,0,0,0,0,0,0,0,0,0,0,0,0,0,0,0,0,0,0,0.679,0.679,0.679,0.679,0,0,0.674,0.673,0.673,0.673,0.671,0.671,0.669,0.666,0.666,0.664,0.662,0.662,0.661,0.659,0.658,0.658,0.657,0.656,0.656,0.654,0.652,0.652,0.648,0.648,0.644,0.64,0.64,0.635,0.632,0.632,0.629,0.627,0.627,0.625,0.625,0.625,0.625,0.624,0.624,0.622,0.621,0.621,0.619,0.616,0.616,0.614,0.611,0.611,0.608,0.605,0.605,0.602,0.602,0.599,0.599,0,0.594,0.592,0.592,0.589,0.587,0.587,0.585,0.584,0.584,0.584,0.583,0.583,0.582,0.582,0.582,0.582,0.582,0.581,0.581,0.581,0.581,0.581,0.581,0.581,0,0,0,0,0,0,0,0,0,0,0,0,0,0,0,0,0,0,0,0,0,0,0,0,0,0,0,0,0,0,0,0,0,0,0,0,0.524,0.524,0.524,0,0,0,0,0,0,0,0,0,0,0,0,0,0,0,0,0.563,0.562,0.562,0.561,0.561,0,0,0,0.602,0.602,0.602,0.603,0.602,0.602,0.602,0.6,0.6,0.6,0.599,0.599,0.598,0.597,0.597,0.596,0.596,0.596,0.596,0.596,0.596,0.596,0.596,0.596,0.596,0.595,0.595,0.596,0.595,0.595,0.595,0.594,0.594,0.594,0.594,0.594,0.593,0.593,0.593,0.593,0.593,0.592,0.592,0.592,0.592,0.591,0.591,0.59,0.59,0.59,0.589,0.589,0.589,0.588,0.588,0.587,0.587,0.586,0.585,0.585,0.584,0.583,0.583,0.582,0.582,0.582,0.582,0.582,0.582,0.582,0.582,0.582,0.583,0.583,0.584,0.585,0.585,0.585,0.586,0.586,0.587,0.588,0.588,0.588,0.589,0.589,0.589,0.589,0.589,0.589,0.589,0.589,0.589,0.588,0.588,0.588,0.588,0.588,0.588,0.587,0.587,0.587,0.587,0.587,0.587,0.587,0.587,0.587,0.587,0.587,0.587,0.587,0.587,0.587,0.588,0.588,0.588,0.588,0.589,0.589,0.589,0.59,0.59,0.591,0.591,0.592,0.592,0.591,0.591,0.59,0.589,0.589,0.588,0.587,0.587,0.585,0.583,0.583,0.581,0.579,0.579,0.578,0.577,0.577,0.576,0.576,0.576,0.576,0.575,0.575,0.575,0.576,0.576,0.576,0.576,0.576,0.577,0.577,0.578,0.579,0.58,0.58,0.58,0.581,0.581,0.581,0.582,0.582,0.583,0.583,0.584,0.584,0.584,0.585,0.585,0.585,0.585,0.585,0.586,0.586,0.587,0.587,0.587,0.588,0.587,0.587,0.587,0.587,0.587,0.586,0.586,0.586,0.586,0.586,0.585,0.585,0.585,0.585,0.586,0.586,0.586,0.586,0.838,0.838,0.838,0.839,0.841,0.841,0.842,0.844,0.844,0.844,0.844,0.844,0.844,0.845,0.845,0.845,0.845,0.845,0.845,0.845,0.845,0.845,0.845,0.845,0.845,0.845,0.843,0.843,0.84,0.838,0.838,0.836,0.834,0.834,0.832,0.829,0.829,0.826,0.824,0.824,0.824,0,0,0.81,0.81,0,0.789,0.789,0.78,0.78,0.773,0.766,0.766,0.76,0.759,0.759,0.756,0.755,0.755,0.752,0.749,0.749,0.746,0.744,0.744,0.741,0.735,0.735,0.729,0.724,0.724,0.718,0.718,0.714,0.709,0.709,0.704,0.702,0.702,0.698,0.696,0.696,0.693,0.69,0.69,0.688,0.687,0.687,0.685,0.683,0.683,0.682,0.682,0.682,0.681,0.681,0.681,0.681,0.681,0.681,0.681,0.682,0.682,0.683,0.683,0.684,0.686,0.686,0.687,0.688,0.688,0.688,0.689,0.69,0.69,0.691,0.691,0.691,0.691,0.691,0.691,0.691,0.691,0.691,0.69,0.69,0.69,0.689,0.688,0.688,0.688,0.687,0.687,0.687,0.686,0.686,0.686,0.686,0.686,0.686,0.685,0.685,0.685,0.685,0.685,0.685,0.685,0.685,0.685,0.685,0.685,0.685,0.685,0.685,0.685,0.685,0.684,0.684,0.684,0.684,0.685,0.685,0.685,0.684,0.684,0.684,0.684,0.684,0.684,0.683,0.682,0.682,0.681,0.679,0.679,0.677,0.676,0.676,0.674,0.673,0.672,0.672,0.67,0.67,0.67,0.669,0.668,0.668,0.668,0.667,0.667,0.667,0.669,0.671,0.671,0.675,0,0.689,0.689,0.689,0.693,0.697,0.7,0.7,0.702,0.703,0.703,0.704,0.705,0.705,0.705,0.705,0.705,0.705,0.705,0.705,0.704,0.704,0.704,0.703,0.703,0.703,0.703,0.702,0.701,0.701,0.7,0.698,0.698,0.697,0.695,0.695,0.694,0.692,0.692
0.739,0.742,0.742,0.742,0.742,0.742,0.742,0.742,0,0,0,0,0,0,0,0,0,0,0,0,0,0,0,0,0,0,0,0,0,1.04,1.04,1.038,1.038,1.038,1.038,1.037,1.037,1.037,1.037,1.037,1.037,1.037,1.037,1.038,1.037,1.037,0,0,0,0,0,0,0,0,0,0,0,0,0,0,0,0,0,0,0,0,0,0,0,0,0,0,0,0,0,0,0,0,0,0,0,0,0,0,0,0,0,0,0,0,0.679,0.679,0.679,0.677,0.676,0.676,0.674,0.673,0.673,0.672,0.67,0.67,0.667,0.665,0.665,0.664,0.662,0.662,0.661,0.659,0.658,0.658,0.657,0.656,0.656,0.654,0.652,0.652,0.648,0.648,0.644,0.64,0.64,0.635,0.632,0.632,0.629,0.627,0.627,0.625,0.625,0.625,0.625,0.624,0.624,0.622,0.621,0.621,0.619,0.616,0.616,0.614,0.611,0.611,0.608,0.605,0.605,0.602,0.601,0.599,0.599,0.597,0.594,0.592,0.592,0.589,0.587,0.587,0.585,0.584,0.584,0.584,0.583,0.583,0.582,0.582,0.582,0.582,0.582,0.581,0.581,0.581,0.581,0.581,0.581,0.581,0.582,0.582,0.582,0,0,0,0,0,0,0,0,0,0,0,0,0,0,0,0,0,0,0,0,0,0,0,0,0,0,0,0,0,0,0,0,0,0.524,0.524,0.524,0,0,0,0,0,0,0,0,0.569,0.569,0.567,0.566,0.566,0.565,0.564,0.564,0.563,0.562,0.562,0.561,0.561,0,0,0,0.602,0.602,0.601,0.6,0.6,0.6,0.599,0.599,0.599,0.598,0.596,0.596,0.596,0.595,0.595,0.595,0.594,0.594,0.594,0.594,0.594,0.594,0.594,0.594,0.594,0.594,0.594,0.595,0.595,0.595,0.595,0.594,0.594,0.594,0.594,0.594,0.593,0.593,0.593,0.593,0.593,0.592,0.592,0.592,0.591,0.591,0.591,0.59,0.589,0.589,0.589,0.589,0.589,0.588,0.587,0.586,0.586,0.586,0.584,0.584,0.583,0.583,0.583,0.582,0.582,0.582,0.581,0.581,0.581,0.581,0.581,0.581,0.581,0.582,0.582,0.583,0.583,0.583,0.584,0.584,0.585,0.586,0.587,0.587,0.588,0.589,0.589,0.589,0.589,0.589,0.589,0.588,0.588,0.588,0.588,0.588,0.588,0.587,0.587,0.587,0.587,0.587,0.587,0.587,0.587,0.587,0.587,0.587,0.587,0.587,0.587,0.587,0.587,0.587,0.588,0.588,0.588,0.588,0.589,0.589,0.589,0.59,0.59,0.591,0.591,0.592,0.592,0.591,0.591,0.59,0.589,0.589,0.588,0.587,0.587,0.585,0.583,0.583,0.581,0.579,0.579,0.578,0.577,0.577,0.576,0.576,0.576,0.576,0.575,0.575,0.575,0.576,0.576,0.576,0.576,0.576,0.577,0.577,0.578,0.579,0.58,0.58,0.58,0.581,0.581,0.581,0.582,0.582,0.583,0.583,0.584,0.584,0.584,0.585,0.585,0.585,0.585,0.585,0.585,0.585,0.586,0.586,0.586,0.586,0.586,0.586,0.586,0.585,0.585,0.585,0.585,0.585,0.585,0.585,0.584,0.584,0.584,0.584,0.584,0.585,0.585,0.586,0.838,0.838,0.838,0.839,0.841,0.841,0.842,0.844,0.844,0.844,0.844,0.844,0.844,0.845,0.845,0.845,0.845,0.845,0.845,0.845,0.845,0.845,0.845,0.845,0.845,0.845,0.843,0.843,0.84,0.838,0.838,0.836,0.834,0.834,0.832,0.829,0.829,0.826,0.824,0.824,0.822,0.816,0.816,0.81,0.81,0.804,0.789,0.789,0.78,0.78,0.773,0.766,0.766,0.76,0.759,0.759,0.756,0.755,0.755,0.752,0.749,0.749,0.746,0.739,0.739,0.734,0.729,0.729,0.724,0.724,0.718,0.713,0.713,0.708,0.705,0.705,0.702,0.699,0.699,0.698,0.693,0.693,0.691,0.689,0.689,0.686,0.685,0.685,0.684,0.682,0.682,0.682,0.681,0.681,0.681,0.68,0.68,0.68,0.68,0.681,0.681,0.681,0.682,0.683,0.683,0.684,0.685,0.685,0.686,0.687,0.688,0.688,0.688,0.69,0.69,0.69,0.69,0.69,0.691,0.691,0.691,0.691,0.69,0.69,0.69,0.69,0.69,0.689,0.688,0.688,0.688,0.687,0.687,0.687,0.686,0.686,0.686,0.685,0.685,0.685,0.685,0.684,0.684,0.684,0.684,0.684,0.684,0.684,0.684,0.684,0.684,0.684,0.684,0.684,0.684,0.684,0.683,0.683,0.683,0.683,0.684,0.684,0.685,0.684,0.684,0.684,0.684,0.684,0.684,0.683,0.682,0.682,0.681,0.679,0.679,0.677,0.676,0.676,0.674,0.673,0.672,0.672,0.67,0.67,0.67,0.669,0.668,0.668,0.668,0.667,0.667,0.667,0.669,0.671,0.671,0.675,0.682,0.686,0.689,0.689,0.693,0.697,0.7,0.7,0.702,0.703,0.703,0.704,0.705,0.705,0.705,0.705,0.705,0.705,0.705,0.705,0.704,0.704,0.704,0.703,0.703,0.703,0.703,0.702,0.701,0.701,0.7,0.698,0.698,0.697,0.695,0.695,0.694,0.692,0.692
0.742,0.744,0.744,0.744,0.744,0,0,0,0,0,0,0,0,0,0,0,0,0,0,0,0,0,0,0,0,0,0,0,0,1.04,1.04,1.038,1.038,1.038,1.038,1.038,1.038,1.038,1.038,1.038,1.038,1.038,1.04,1.04,1.04,0,0,0,0,0,0,0,0,0,0,0,0,0,0,0,0,0,0,0,0,0,0,0,0,0,0,0,0,0,0,0,0,0,0,0,0,0,0,0,0,0,0,0,0,0,0.679,0.679,0.679,0.677,0.675,0.675,0.673,0.672,0.672,0.671,0.67,0.67,0.667,0.665,0.665,0.663,0.662,0.662,0.661,0.659,0.659,0.659,0.658,0.657,0.657,0.655,0.654,0.654,0.651,0.648,0.648,0.644,0.644,0.64,0.636,0.636,0.632,0.63,0.63,0.628,0.627,0.627,0.626,0.625,0.625,0.624,0.622,0.622,0.621,0.618,0.618,0.616,0.613,0.613,0.61,0.607,0.607,0.604,0.601,0.601,0.599,0.597,0.597,0.595,0.594,0.592,0.59,0.59,0.588,0.587,0.587,0.586,0.585,0.585,0.584,0.583,0.583,0.583,0.583,0.582,0.582,0.582,0.582,0.582,0.582,0.582,0.582,0.582,0.582,0,0,0,0,0,0,0,0,0,0,0,0,0,0,0,0,0,0,0,0,0,0,0,0,0,0,0,0,0,0,0,0,0,0,0,0,0,0,0,0,0,0,0,0.574,0.569,0.569,0.567,0.566,0.566,0.565,0.564,0.564,0.564,0.563,0.563,0.562,0.562,0,0,0,0,0,0.601,0.597,0.597,0.597,0.597,0.598,0.597,0.596,0.595,0.595,0.594,0.594,0.594,0.593,0.593,0.593,0.593,0.592,0.592,0.592,0.593,0.593,0.593,0.593,0.594,0.595,0.595,0.595,0.595,0.595,0.594,0.594,0.594,0.594,0.593,0.593,0.593,0.593,0.593,0.592,0.591,0.591,0.591,0.59,0.59,0.59,0.589,0.589,0.588,0.588,0.588,0.587,0.587,0.586,0.586,0.585,0.584,0.584,0.583,0.582,0.582,0.581,0.581,0.581,0.58,0.58,0.58,0.58,0.58,0.58,0.58,0.58,0.581,0.581,0.581,0.582,0.583,0.583,0.584,0.585,0.587,0.587,0.587,0.588,0.588,0.588,0.589,0.589,0.589,0.588,0.588,0.588,0.588,0.588,0.588,0.587,0.587,0.587,0.587,0.587,0.587,0.587,0.587,0.587,0.587,0.587,0.587,0.587,0.587,0.588,0.588,0.588,0.588,0.588,0.588,0.589,0.59,0.59,0.591,0.591,0.591,0.592,0.593,0.594,0.594,0.594,0.594,0.593,0.592,0.592,0.591,0.589,0.589,0.588,0.586,0.586,0.584,0.582,0.582,0.58,0.579,0.579,0.577,0.577,0.577,0.576,0.576,0.576,0.576,0.576,0.576,0.577,0.577,0.577,0.578,0.578,0.579,0.58,0.581,0.581,0.581,0.582,0.582,0.583,0.583,0.583,0.583,0.584,0.584,0.584,0.584,0.584,0.584,0.584,0.585,0.584,0.584,0.584,0.585,0.585,0.585,0.585,0.585,0.584,0.584,0.584,0.584,0.584,0.584,0.584,0.584,0.584,0.583,0.583,0.584,0.583,0.583,0.583,0.583,0.583,0.584,0.584,0.843,0.843,0.844,0.844,0.846,0.847,0.847,0.847,0.847,0.847,0.847,0.848,0.849,0.849,0.849,0.85,0.85,0.85,0.85,0.849,0.849,0.848,0.848,0.847,0.845,0.845,0.843,0.84,0.84,0.838,0.835,0.835,0.832,0.83,0.83,0.827,0.824,0.824,0.822,0.816,0.816,0.813,0.813,0.804,0.804,0,0,0,0,0.768,0.768,0.762,0.761,0.761,0.749,0.749,0.756,0.742,0.742,0.735,0.73,0.73,0.725,0.721,0.721,0.721,0.724,0.724,0.718,0.713,0.713,0.702,0.7,0.7,0.697,0.695,0.695,0.693,0.691,0.691,0.689,0.687,0.687,0.685,0.683,0.683,0.682,0.682,0.682,0.681,0.68,0.68,0.68,0.68,0.68,0.68,0.68,0.68,0.68,0.681,0.682,0.682,0.682,0.683,0.684,0.684,0.686,0.687,0.687,0.687,0.688,0.689,0.689,0.69,0.69,0.69,0.69,0.691,0.691,0.69,0.69,0.69,0.69,0.69,0.69,0.689,0.689,0.689,0.688,0.687,0.687,0.687,0.686,0.686,0.686,0.685,0.685,0.685,0.684,0.684,0.684,0.683,0.683,0.683,0.683,0.683,0.683,0.683,0.683,0.683,0.683,0.683,0.683,0.683,0.683,0.683,0.683,0.683,0.683,0.684,0.685,0.685,0.685,0.685,0.685,0.685,0.685,0.685,0.684,0.684,0.683,0.682,0.681,0.681,0.679,0.677,0.677,0.676,0.675,0.675,0.673,0.673,0.673,0.672,0.671,0.671,0.67,0.669,0.669,0.669,0.671,0.673,0.677,0.677,0.682,0.686,0.689,0.689,0.693,0.697,0.7,0.7,0.702,0.703,0.703,0.704,0.704,0.705,0.705,0.705,0.705,0.705,0.705,0.705,0.705,0.704,0.704,0.704,0.703,0.703,0.703,0.703,0.702,0.702,0.702,0.701,0.701,0.7,0.698,0.698,0.696,0.695,0.695
0.743,0,0,0,0,0,0,0,0,0,0,0,0,0,0,0,0,0,0,0,0,0,0,0,0,0,0,0,0,0,0,1.036,1.036,1.037,1.037,1.038,1.038,1.038,1.038,1.038,1.038,1.041,1.042,1.043,1.043,1.047,0,0,0,0,0,0,0,0,0,0,0,0,0,0,0,0,0,0,0,0,0,0,0,0,0,0,0,0,0,0,0,0,0,0,0,0,0,0,0,0,0,0,0,0,0.68,0.679,0.679,0.677,0.675,0.675,0.673,0.672,0.672,0.671,0.67,0.67,0.667,0.665,0.665,0.663,0.662,0.662,0.661,0.66,0.659,0.659,0.659,0.658,0.658,0.657,0.656,0.656,0.653,0.65,0.65,0.646,0.646,0.642,0.638,0.638,0.635,0.632,0.632,0.629,0.628,0.628,0.627,0.626,0.626,0.624,0.623,0.623,0.621,0.619,0.619,0.617,0.614,0.614,0.611,0.608,0.608,0.606,0.603,0.603,0.6,0.598,0.598,0.596,0.594,0.594,0.592,0.592,0.59,0.588,0.588,0.587,0.586,0.585,0.585,0.585,0.584,0.584,0.584,0.583,0.583,0.583,0.583,0.583,0.583,0.583,0.583,0.583,0.583,0,0,0,0,0,0,0,0,0,0,0,0,0,0,0,0,0,0,0,0,0,0,0,0,0,0,0,0,0,0,0,0,0,0,0,0,0,0,0,0,0,0,0,0.574,0.571,0.571,0.569,0.567,0.567,0.566,0.566,0,0.564,0.563,0.563,0.562,0.562,0,0,0,0,0,0,0.597,0.597,0.597,0.597,0.598,0.597,0.596,0.595,0.595,0.594,0.594,0.594,0.593,0.593,0.593,0.593,0.592,0.592,0.592,0.593,0.593,0.593,0.593,0.594,0.595,0.595,0.595,0.595,0.595,0.595,0.595,0.595,0.594,0.594,0.594,0.593,0.593,0.593,0.592,0.591,0.591,0.591,0.59,0.59,0.59,0.589,0.589,0.588,0.588,0.588,0.587,0.587,0.586,0.586,0.585,0.584,0.584,0.583,0.582,0.582,0.581,0.581,0.581,0.58,0.58,0.58,0.58,0.58,0.58,0.58,0.58,0.581,0.581,0.581,0.582,0.583,0.583,0.584,0.585,0.587,0.587,0.587,0.588,0.588,0.588,0.589,0.589,0.589,0.588,0.588,0.588,0.588,0.588,0.588,0.588,0.588,0.587,0.587,0.587,0.587,0.587,0.587,0.587,0.587,0.587,0.587,0.587,0.588,0.588,0.588,0.588,0.588,0.589,0.589,0.589,0.59,0.59,0.591,0.592,0.592,0.593,0.594,0.595,0.595,0.595,0.595,0.595,0.594,0.594,0.594,0,0,0,0,0,0.586,0.584,0.584,0.582,0.581,0.581,0.579,0.578,0.578,0.577,0.577,0.577,0.577,0.577,0.578,0.578,0.578,0.579,0.579,0.579,0.58,0.581,0.582,0.582,0.582,0.583,0.583,0.583,0.584,0.584,0.584,0.584,0.584,0.584,0.584,0.584,0.584,0.584,0.585,0.584,0.584,0.584,0.585,0.585,0.585,0.585,0.585,0.584,0.584,0.584,0.584,0.584,0.584,0.584,0.584,0.584,0.583,0.583,0,0.583,0.583,0.583,0.583,0.583,0.584,0.584,0.845,0.845,0.847,0.847,0.848,0.849,0.849,0.849,0.849,0.849,0.849,0.85,0.851,0.851,0.852,0.852,0.852,0.852,0.852,0.852,0.852,0.851,0.851,0.85,0.847,0.847,0.845,0.842,0.842,0.839,0.837,0.837,0.834,0.831,0.831,0.828,0.825,0.825,0.822,0.817,0.817,0.814,0.807,0.806,0.806,0,0.789,0.789,0,0.77,0.77,0.764,0.762,0.762,0.749,0.749,0.737,0.732,0.732,0.724,0.718,0.718,0.718,0.721,0.721,0.721,0,0,0,0,0,0.697,0.697,0.695,0.694,0.694,0.692,0.69,0.69,0.689,0.687,0.687,0.685,0.684,0.683,0.682,0.682,0.681,0.681,0.68,0.68,0.68,0.679,0.679,0.68,0.68,0.68,0.68,0.68,0.681,0.681,0.682,0.682,0.682,0.684,0.684,0.685,0.686,0.687,0.687,0.687,0.688,0.688,0.689,0.69,0.69,0.69,0.69,0.691,0.69,0.69,0.69,0.69,0.69,0.69,0.689,0.689,0.689,0.689,0.688,0.687,0.687,0.687,0.686,0.686,0.686,0.685,0.685,0.684,0.684,0.684,0.683,0.683,0.683,0.683,0.682,0.682,0.682,0.682,0.682,0.682,0.682,0.682,0.683,0.683,0.683,0.683,0.683,0.683,0.684,0.685,0.685,0.685,0.686,0.686,0.686,0.686,0.686,0.686,0.685,0.685,0.684,0.682,0.682,0.682,0.68,0.68,0.678,0.677,0.677,0.676,0.675,0.675,0.675,0.673,0.673,0.672,0.671,0.671,0.671,0.673,0.675,0.678,0.678,0.682,0.685,0.688,0.688,0.692,0.695,0.698,0.698,0.7,0.702,0.702,0.703,0.704,0.705,0.705,0.705,0.705,0.705,0.705,0.705,0.705,0.704,0.704,0.704,0.704,0.703,0.703,0.703,0.703,0.703,0.702,0.701,0.701,0.7,0.7,0.7,0.698,0.697,0.697
0.743,0,0,0,0,0,0,0,0,0,0,0,0,0,0,0,0,0,0,0,0,0,0,0,0,0,0,0,0,0,0,1.036,1.036,1.037,1.037,1.04,1.04,1.04,1.04,1.041,1.041,1.043,1.045,1.047,1.047,1.047,0,0,0,0,0,0,0,0,0,0,0,0,0,0,0,0,0,0,0,0,0,0,0,0,0,0,0,0,0,0,0,0,0,0,0,0,0,0,0,0,0,0,0,0,0.68,0.679,0.679,0.677,0.675,0.675,0.673,0.672,0.672,0.671,0.669,0.669,0.667,0.665,0.665,0.663,0.662,0.662,0.661,0.66,0.659,0.659,0.659,0.658,0.658,0.657,0.656,0.656,0.653,0.65,0.65,0.646,0.646,0.642,0.638,0.638,0.635,0.632,0.632,0.629,0.628,0.628,0.627,0.626,0.626,0.624,0.623,0.623,0.621,0.619,0.619,0.616,0.614,0.614,0.611,0.608,0.608,0.606,0.603,0.603,0.6,0.598,0.598,0.596,0.594,0.594,0.592,0.591,0.59,0.588,0.588,0.587,0.586,0.585,0.585,0.585,0.584,0.584,0.584,0.583,0.583,0.583,0.583,0.583,0.583,0.583,0.583,0.583,0.583,0.584,0,0,0,0,0,0,0,0,0,0,0,0,0,0,0,0,0,0,0,0,0,0,0,0,0,0,0,0,0.583,0.583,0.583,0,0,0,0,0,0,0,0,0,0,0,0.574,0.571,0.571,0.569,0.567,0.567,0.566,0.566,0.566,0.564,0.563,0.563,0.562,0.562,0.562,0.562,0.562,0.562,0.566,0.566,0.597,0.597,0.593,0.593,0.595,0.595,0.594,0.594,0.594,0.594,0.593,0.593,0.593,0.592,0.592,0.592,0.592,0.592,0.592,0.592,0.592,0.592,0.593,0.593,0.594,0.594,0.595,0.595,0.595,0.595,0.595,0.595,0.594,0.594,0.594,0.593,0.593,0.593,0.592,0.591,0.591,0.591,0.59,0.59,0.589,0.588,0.588,0.588,0.587,0.587,0.587,0.586,0.586,0.586,0.585,0.584,0.584,0.583,0.582,0.582,0.581,0.58,0.58,0.58,0.579,0.579,0.579,0.579,0.579,0.579,0.579,0.579,0.58,0.58,0.581,0.582,0.582,0.583,0.585,0.586,0.586,0.587,0.587,0.587,0.588,0.588,0.588,0.588,0.588,0.588,0.588,0.588,0.588,0.588,0.588,0.588,0.587,0.587,0.587,0.587,0.587,0.587,0.587,0.587,0.587,0.587,0.587,0.588,0.588,0.588,0.588,0.588,0.589,0.589,0.589,0.59,0.59,0.591,0.592,0.592,0.593,0.594,0.595,0.595,0.595,0.595,0.595,0.594,0.594,0.594,0.594,0,0,0.589,0.589,0.586,0.584,0.584,0.582,0.581,0.581,0.579,0.578,0.578,0.577,0.577,0.577,0.577,0.577,0.578,0.578,0.578,0.579,0.579,0.579,0.58,0.581,0.582,0.582,0.582,0.583,0.583,0.583,0.584,0.584,0.584,0.584,0.584,0.584,0.584,0.584,0.584,0.584,0.584,0.584,0.584,0.584,0.584,0.584,0.584,0.584,0.584,0.583,0.583,0.583,0.583,0.583,0.583,0.583,0.583,0.582,0.582,0.582,0.582,0.582,0.582,0.582,0.582,0.583,0.584,0.584,0.845,0.846,0.848,0.848,0.849,0.849,0.849,0.849,0.85,0.85,0.85,0.851,0.852,0.852,0.852,0.853,0.853,0.853,0.853,0.852,0.852,0.853,0.853,0.852,0.85,0.85,0.847,0.844,0.844,0.841,0.838,0.838,0.835,0.832,0.832,0.828,0.826,0.826,0.822,0.818,0.818,0.814,0.807,0.807,0.807,0,0.789,0.789,0,0.772,0.772,0.764,0.763,0.763,0.753,0.753,0.737,0.732,0.732,0.724,0.718,0.718,0.718,0,0,0,0,0,0,0,0,0.697,0.697,0.695,0.694,0.694,0.692,0.69,0.69,0.689,0.687,0.687,0.685,0.684,0.684,0.682,0.682,0.681,0.681,0.68,0.68,0.68,0.679,0.679,0.68,0.68,0.68,0.68,0.68,0.681,0.681,0.682,0.682,0.682,0.684,0.684,0.685,0.686,0.687,0.687,0.687,0.688,0.688,0.689,0.69,0.69,0.69,0.69,0.691,0.691,0.691,0.691,0.69,0.69,0.69,0.69,0.69,0.69,0.689,0.688,0.688,0.688,0.687,0.687,0.687,0.686,0.685,0.685,0.684,0.684,0.684,0.683,0.683,0.683,0.683,0.682,0.682,0.682,0.682,0.682,0.682,0.682,0.682,0.683,0.683,0.683,0.683,0.683,0.684,0.685,0.685,0.685,0.686,0.686,0.686,0.687,0.687,0.687,0.687,0.686,0.686,0.685,0.684,0.684,0.683,0.682,0.682,0.68,0.679,0.679,0.678,0.677,0.677,0.677,0.675,0.675,0.674,0.673,0.673,0.673,0.675,0.676,0.679,0.679,0.682,0.685,0.688,0.688,0.692,0.695,0.698,0.698,0.7,0.702,0.702,0.703,0.704,0.705,0.705,0.705,0.705,0.705,0.705,0.705,0.705,0.705,0.705,0.704,0.704,0.704,0.704,0.703,0.703,0.703,0.702,0.701,0.701,0.701,0.7,0.7,0.698,0.698,0.698
0.745,0,0,0,0,0,0,0,0,0,0,0,0,0,0,0,0,0,0,0,0,0,0,0,0,0,0,0,0,0,1.032,1.032,1.036,1.037,1.037,1.038,1.04,1.04,1.04,1.041,1.041,1.043,1.045,1.047,1.047,1.047,1.053,1.053,0,0,0,0,0,0,0,0,0,0,0,0,0,0,0,0,0,0,0,0,0,0,0,0,0,0,0,0,0,0,0,0,0,0,0,0,0,0,0,0,0,0,0,0.679,0.679,0.677,0.675,0.675,0.674,0.674,0,0.671,0.669,0.669,0.667,0.665,0.665,0.663,0.662,0.662,0.662,0.661,0.66,0.66,0.66,0.659,0.659,0.658,0.657,0.657,0.655,0.653,0.653,0.649,0.648,0.648,0.641,0.64,0.637,0.633,0.633,0.63,0.629,0.629,0.628,0.627,0.627,0.625,0.623,0.623,0.621,0.619,0.619,0.616,0.613,0.613,0.611,0.608,0.608,0.606,0.603,0.603,0.601,0.599,0.599,0.597,0.595,0.595,0.593,0.591,0.591,0.589,0.588,0.588,0.586,0.585,0.585,0.585,0.585,0.585,0.584,0.584,0.584,0.583,0.583,0.583,0.583,0.583,0.583,0.583,0.584,0.584,0.585,0.585,0,0,0,0,0,0,0,0,0,0,0,0,0,0,0,0,0,0,0,0,0,0,0,0.583,0.583,0.583,0.583,0.583,0.583,0.584,0.585,0.585,0.585,0.586,0.586,0.585,0.583,0.583,0.581,0.579,0.579,0.573,0.573,0.57,0.568,0.568,0.567,0.566,0.566,0.565,0.564,0.564,0.563,0.563,0.562,0.562,0.562,0.562,0.566,0.566,0,0,0.593,0.593,0.594,0.594,0.594,0.594,0.593,0.593,0.592,0.592,0.592,0.592,0.592,0.591,0.591,0.591,0.591,0.591,0.591,0.591,0.592,0.593,0.594,0.594,0.595,0.596,0.596,0.595,0.595,0.595,0.595,0.594,0.594,0.594,0.592,0.592,0.591,0.59,0.59,0.59,0.589,0.589,0.588,0.588,0.588,0.587,0.587,0.587,0.586,0.586,0.586,0.585,0.584,0.583,0.583,0.582,0.582,0.582,0.581,0.58,0.58,0.579,0.579,0.579,0.578,0.578,0.578,0.578,0.578,0.579,0.579,0.579,0.58,0.581,0.581,0.582,0.584,0.585,0.585,0.586,0.587,0.587,0.587,0.588,0.588,0.588,0.588,0.588,0.588,0.588,0.588,0.588,0.588,0.588,0.587,0.587,0.588,0.587,0.587,0.587,0.587,0.587,0.587,0.588,0.588,0.588,0.588,0.588,0.588,0.588,0.589,0.589,0.59,0.591,0.591,0.592,0.593,0.594,0.594,0.595,0.595,0.595,0.596,0.596,0.595,0.595,0.595,0.594,0.593,0.592,0.592,0.589,0.589,0.588,0.587,0.587,0.584,0.583,0.583,0.581,0.58,0.58,0.579,0.579,0.579,0.579,0.579,0.579,0.58,0.58,0.58,0.581,0.581,0.582,0.583,0.583,0.583,0.584,0.584,0.584,0.584,0.584,0.584,0.584,0.584,0.584,0.584,0.584,0.584,0.584,0.584,0.584,0.583,0.583,0.583,0.583,0.583,0.583,0.583,0.583,0.582,0.582,0.582,0.582,0.582,0.582,0.582,0.582,0.581,0.581,0.581,0.581,0.581,0.581,0.581,0.581,0.581,0.581,0.581,0.845,0.846,0.848,0.848,0.849,0.849,0.849,0.849,0.85,0.849,0.849,0.85,0.852,0.852,0.852,0.853,0.853,0.853,0.853,0.852,0.852,0.852,0.852,0.851,0.85,0.85,0.847,0.844,0.844,0.841,0.838,0.838,0.834,0.83,0.83,0.825,0.822,0.822,0.819,0.814,0.814,0.811,0.807,0.804,0.804,0,0.789,0.789,0,0.772,0.772,0.764,0.755,0.755,0.753,0.753,0.737,0.732,0.732,0.724,0.718,0.718,0.718,0,0,0,0,0,0,0,0.695,0.693,0.693,0.693,0.691,0.691,0.69,0.689,0.689,0.687,0.686,0.686,0.685,0.683,0.683,0.682,0.681,0.68,0.68,0.68,0.679,0.679,0.679,0.679,0.679,0.679,0.679,0.68,0.68,0.68,0.681,0.681,0.681,0.682,0.683,0.683,0.684,0.685,0.686,0.686,0.687,0.688,0.688,0.689,0.689,0.689,0.69,0.69,0.691,0.691,0.691,0.691,0.69,0.69,0.69,0.69,0.69,0.69,0.689,0.688,0.688,0.688,0.687,0.687,0.687,0.686,0.685,0.685,0.684,0.684,0.684,0.683,0.683,0.683,0.683,0.682,0.682,0.682,0.682,0.682,0.682,0.682,0.682,0.683,0.683,0.683,0.683,0.683,0.684,0.685,0.685,0.685,0.686,0.686,0.686,0.687,0.687,0.687,0.687,0.686,0.686,0.685,0.684,0.684,0.683,0.682,0.682,0.68,0.679,0.679,0.678,0.677,0.677,0.677,0.675,0.675,0.674,0.673,0.673,0.673,0.675,0.676,0.677,0.677,0.679,0.682,0.682,0.685,0.689,0.692,0.692,0.696,0.698,0.7,0.7,0.703,0.703,0.704,0.704,0.704,0.705,0.705,0.705,0.705,0.705,0.705,0.705,0.704,0.704,0.703,0.703,0.703,0.702,0.702,0.702,0.701,0.701,0.701,0.7,0.7,0.698,0.698,0.698
0.747,0,0,0,0,0,0,0,0,0,0,0,0,0,0,0,0,0,0,0,0,0,0,0,0,0,0,0,0,0,1.032,1.032,1.036,1.037,1.037,1.038,1.04,1.04,1.042,1.043,1.046,1.046,1.048,1.05,1.05,1.051,1.053,1.053,1.059,0,0,0,0,0,0,0,0,0,0,0,0,0,0,0,0,0,0,0,0,0,0,0,0,0,0,0,0,0,0,0,0,0,0,0,0,0,0,0,0,0,0,0.679,0.679,0.677,0.675,0.675,0.674,0.673,0.673,0.671,0.669,0.669,0.667,0.665,0.665,0.663,0.663,0.662,0.662,0.662,0.661,0.661,0.661,0.661,0.661,0.66,0.66,0.66,0.659,0.656,0.656,0.653,0.648,0.648,0.645,0.64,0.64,0.635,0.635,0.632,0.63,0.63,0.629,0.627,0.627,0.625,0.623,0.623,0.621,0.619,0.619,0.616,0.613,0.613,0.61,0.608,0.608,0.605,0.603,0.603,0.601,0.599,0.599,0.597,0.596,0.596,0.594,0.592,0.592,0.59,0.588,0.588,0.587,0.586,0.586,0.586,0.586,0.586,0.585,0.584,0.584,0.584,0.584,0.584,0.584,0.584,0.584,0.585,0.584,0.584,0.585,0.585,0.586,0,0,0,0,0,0,0,0,0,0,0,0,0,0,0,0,0,0,0,0,0,0.585,0.583,0.583,0.583,0.583,0.584,0.584,0.584,0.585,0.585,0.585,0.586,0.586,0.585,0.583,0.583,0.581,0.579,0.579,0.577,0.574,0.574,0.572,0.571,0.571,0.569,0.567,0.567,0.566,0.566,0,0.566,0.566,0.567,0.567,0.57,0.573,0.581,0,0,0.59,0.59,0.593,0.593,0.593,0.593,0.593,0.593,0.592,0.592,0.591,0.591,0.591,0.59,0.59,0.591,0.591,0.591,0.591,0.591,0.591,0.592,0.594,0.594,0.595,0.596,0.596,0.596,0.596,0.595,0.595,0.594,0.594,0.594,0.592,0.592,0.591,0.59,0.59,0.59,0.589,0.589,0.588,0.588,0.588,0.587,0.586,0.586,0.586,0.585,0.585,0.585,0.584,0.583,0.583,0.582,0.581,0.581,0.58,0.58,0.58,0.579,0.578,0.578,0.578,0.578,0.578,0.578,0.578,0.578,0.578,0.578,0.579,0.581,0.581,0.582,0.583,0.583,0.585,0.586,0.587,0.587,0.587,0.588,0.588,0.588,0.588,0.588,0.588,0.588,0.588,0.588,0.588,0.588,0.588,0.588,0.588,0.588,0.588,0.587,0.587,0.587,0.588,0.588,0.588,0.588,0.588,0.588,0.589,0.589,0.59,0.59,0.591,0.592,0.592,0.592,0.594,0.595,0.595,0.595,0.596,0.596,0.596,0.596,0.596,0.595,0.595,0.594,0.593,0.592,0.592,0.59,0.589,0.588,0.587,0.586,0.586,0.585,0.583,0.583,0.582,0.581,0.581,0.581,0.581,0.582,0.582,0.582,0.582,0.582,0.583,0.583,0.584,0.584,0.584,0.585,0.585,0.585,0.585,0.585,0.585,0.585,0.585,0.585,0.584,0.584,0.584,0.584,0.584,0.583,0.583,0.583,0.583,0.582,0.582,0.582,0.582,0.582,0.582,0.582,0.581,0.581,0.581,0.581,0.581,0.581,0.581,0.581,0.581,0.58,0.58,0.58,0.58,0.58,0.58,0.58,0.58,0.581,0.581,0.845,0.846,0.848,0.848,0.849,0.85,0.848,0.848,0.849,0.848,0.848,0.85,0.85,0.85,0.852,0.852,0.852,0.852,0.852,0.852,0.852,0.852,0.852,0.851,0.848,0.848,0.845,0.843,0.843,0.84,0.834,0.834,0.83,0.83,0.824,0.819,0.819,0.816,0.813,0.813,0.808,0.806,0.806,0.804,0.804,0,0.789,0.789,0,0.773,0.773,0.765,0.755,0.755,0.755,0,0,0,0,0,0,0,0,0,0,0.694,0.694,0.693,0.692,0.692,0.691,0.69,0.69,0.69,0.689,0.689,0.688,0.687,0.687,0.686,0.685,0.685,0.684,0.683,0.683,0.682,0.681,0.68,0.68,0.68,0.679,0.679,0.679,0.679,0.679,0.679,0.679,0.68,0.68,0.68,0.681,0.681,0.681,0.682,0.683,0.683,0.684,0.685,0.686,0.686,0.687,0.688,0.688,0.689,0.689,0.689,0.69,0.69,0.691,0.691,0.691,0.691,0.691,0.691,0.691,0.69,0.69,0.69,0.689,0.689,0.688,0.688,0.687,0.687,0.687,0.686,0.685,0.685,0.684,0.684,0.684,0.683,0.683,0.683,0.683,0.682,0.682,0.682,0.682,0.682,0.683,0.682,0.682,0.683,0.683,0.683,0.684,0.684,0.684,0.685,0.686,0.686,0.687,0.687,0.687,0.687,0.687,0.687,0.687,0.687,0.687,0.687,0.686,0.686,0.685,0.683,0.683,0.682,0.681,0.681,0.68,0.679,0.679,0.679,0.677,0.677,0.676,0.676,0.676,0.675,0.675,0.676,0.677,0.677,0.679,0.681,0.681,0.683,0.685,0.689,0.689,0.693,0.695,0.699,0.699,0.702,0.703,0.703,0.703,0.704,0.704,0.704,0.704,0.705,0.704,0.704,0.704,0.704,0.704,0.703,0.703,0.703,0.702,0.702,0.702,0.701,0.701,0.7,0.7,0.7,0.699,0.698,0.698
0.75,0,0,0,0,0,0,0,0,0,0,0,0,0,0,0,0,0,0,0,0,0,0,0,0,0,0,0,0,0,0,1.036,1.036,1.037,1.037,1.04,1.041,1.041,1.042,1.044,1.047,1.047,1.05,1.052,1.052,1.053,1.057,1.057,1.059,0,0,0,0,0,0,0,0,0,0,0,0,0,0,0,0,0,0,0,0,0,0,0,0,0,0,0,0,0,0,0,0,0,0,0,0,0,0,0,0,0,0,0.679,0.679,0.677,0.676,0.676,0.674,0.673,0.673,0.671,0.67,0.67,0.667,0.666,0.666,0.664,0.663,0.663,0.663,0.663,0.662,0.662,0.662,0.663,0.663,0.662,0.662,0.662,0.661,0.659,0.659,0.655,0.65,0.65,0.645,0.64,0.64,0.636,0.636,0.632,0.63,0.63,0.629,0.627,0.627,0.625,0.623,0.623,0.621,0.619,0.619,0.616,0.613,0.613,0.61,0.608,0.608,0.605,0.603,0.603,0.601,0.6,0.6,0.597,0.596,0.596,0.594,0.592,0.592,0.591,0.589,0.589,0.588,0.587,0.587,0.587,0.586,0.586,0.586,0.585,0.585,0.585,0.585,0.585,0.585,0.585,0.585,0.585,0.585,0.585,0.585,0.585,0.586,0,0,0,0,0,0,0,0,0,0,0,0,0,0,0,0,0,0,0,0,0,0.585,0.584,0.584,0.584,0.585,0.585,0.585,0.586,0.586,0.586,0.586,0.587,0.587,0.586,0.584,0.584,0.582,0.58,0.58,0.577,0.574,0.574,0.572,0.571,0.571,0.569,0.569,0,0.567,0.567,0,0.566,0.566,0.567,0.567,0.57,0.575,0.581,0,0,0.59,0.59,0.593,0.593,0.593,0.593,0.593,0.593,0.592,0.592,0.591,0.591,0.591,0.59,0.59,0.591,0.591,0.591,0.591,0.591,0.591,0.592,0.594,0.594,0.595,0.596,0.596,0.596,0.596,0.595,0.595,0.594,0.594,0.594,0.592,0.592,0.591,0.59,0.59,0.59,0.589,0.589,0.588,0.588,0.588,0.587,0.586,0.586,0.586,0.585,0.585,0.585,0.584,0.583,0.583,0.582,0.581,0.581,0.58,0.58,0.58,0.579,0.578,0.578,0.578,0.578,0.578,0.578,0.578,0.578,0.578,0.578,0.579,0.581,0.581,0.582,0.583,0.583,0.585,0.586,0.587,0.587,0.588,0.588,0.588,0.588,0.588,0.588,0.588,0.588,0.588,0.588,0.588,0.588,0.588,0.588,0.588,0.588,0.588,0.588,0.588,0.588,0.588,0.589,0.589,0.589,0.589,0.589,0.59,0.59,0.591,0.591,0.592,0.593,0.593,0.593,0.594,0.595,0.595,0.596,0.596,0.596,0.596,0.596,0.596,0.595,0.595,0.594,0.593,0.592,0.592,0.59,0.589,0.589,0.587,0.586,0.586,0.585,0.584,0.584,0.584,0.582,0.582,0.582,0.583,0.583,0.583,0.583,0.583,0.583,0.584,0.584,0.585,0.585,0.585,0.586,0.586,0.586,0.586,0.586,0.586,0.585,0.585,0.585,0.584,0.584,0.584,0.584,0.584,0.583,0.583,0.583,0.583,0.582,0.582,0.582,0.582,0.582,0.582,0.582,0.581,0.581,0.581,0.581,0.581,0.581,0.581,0.581,0.581,0.58,0.58,0.58,0.58,0.58,0.58,0.58,0.58,0.846,0.846,0.846,0.847,0.849,0.849,0.849,0.85,0.848,0.848,0.849,0.848,0.848,0.85,0.85,0.85,0.852,0.852,0.852,0.852,0.852,0.852,0.852,0.852,0.852,0.851,0.848,0.848,0.845,0.843,0.843,0.84,0.834,0.834,0.83,0.83,0.824,0.819,0.819,0.816,0.813,0.813,0.808,0.806,0.806,0.806,0,0,0,0,0,0,0,0,0,0,0,0,0,0,0,0,0,0,0,0,0,0.694,0.694,0.693,0.692,0.692,0.691,0.69,0.69,0.69,0.689,0.689,0.688,0.687,0.687,0.686,0.685,0.685,0.684,0.683,0.683,0.682,0.681,0.681,0.681,0.68,0.68,0.68,0.68,0.68,0.68,0.68,0.68,0.68,0.68,0.681,0.681,0.681,0.681,0.682,0.683,0.683,0.684,0.685,0.686,0.686,0.687,0.688,0.688,0.689,0.69,0.69,0.69,0.69,0.691,0.691,0.691,0.691,0.691,0.691,0.691,0.69,0.69,0.69,0.69,0.689,0.689,0.689,0.688,0.687,0.687,0.687,0.686,0.686,0.685,0.684,0.684,0.683,0.683,0.683,0.683,0.682,0.682,0.682,0.682,0.683,0.683,0.683,0.683,0.683,0.683,0.683,0.684,0.684,0.685,0.685,0.686,0.686,0.687,0.687,0.687,0.688,0.689,0.689,0.688,0.688,0.688,0.687,0.687,0.687,0.686,0.684,0.684,0.683,0.682,0.682,0.681,0.681,0.681,0.68,0.679,0.679,0.678,0.677,0.677,0.677,0.677,0.677,0.677,0.677,0.679,0.681,0.681,0.683,0.685,0.689,0.689,0.693,0.695,0.699,0.699,0.702,0.703,0.703,0.703,0.704,0.704,0.704,0.704,0.705,0.704,0.704,0.704,0.704,0.704,0.703,0.703,0.703,0.703,0.703,0.702,0.701,0.701,0.7,0.7,0.7,0.699,0.699,0.699
0.75,0,0,0,0,0,0,0,0,0,0,0,0,0,0,0,0,0,0,0,0,0,0,0,0,0,0,0,0,0,1.031,1.031,1.036,1.037,1.037,1.038,1.041,1.041,1.042,1.044,1.047,1.047,1.05,1.052,1.052,1.053,1.057,1.057,1.059,0,0,0,0,0,0,0,0,0,0,0,0,0,0,0,0,0,0,0,0,0,0,0,0,0,0,0,0,0,0,0,0,0,0,0,0,0,0,0,0,0,0,0.679,0.679,0.677,0.675,0.675,0.674,0.673,0.673,0.671,0.67,0.67,0.667,0.666,0.666,0.664,0.663,0.663,0.663,0.663,0.662,0.662,0.662,0.663,0.663,0.662,0.662,0.662,0.661,0.659,0.659,0.655,0.65,0.65,0.645,0.64,0.64,0.636,0.636,0.632,0.63,0.63,0.628,0.626,0.626,0.624,0.622,0.622,0.621,0.618,0.618,0.615,0.612,0.612,0.61,0.608,0.608,0.605,0.603,0.603,0.601,0.6,0.6,0.597,0.596,0.596,0.594,0.592,0.592,0.591,0.589,0.589,0.588,0.587,0.587,0.587,0.586,0.586,0.586,0.585,0.585,0.585,0.585,0.585,0.585,0.585,0.585,0.585,0.585,0.585,0.585,0.585,0.586,0.588,0.588,0,0,0,0,0,0,0,0,0,0,0,0,0,0,0,0,0,0,0,0.585,0.584,0.584,0.584,0.585,0.585,0.585,0.586,0.586,0.586,0.586,0.587,0.587,0.586,0.584,0.584,0.582,0.58,0.58,0.577,0.574,0.574,0.572,0.571,0.571,0.569,0.569,0.572,0.567,0.567,0,0.566,0.566,0.567,0.567,0.57,0.575,0.581,0,0,0.59,0.59,0.592,0.592,0.592,0.593,0.592,0.592,0.592,0.591,0.591,0.59,0.59,0.59,0.59,0.59,0.59,0.59,0.59,0.59,0.59,0.591,0.593,0.593,0.595,0.596,0.596,0.596,0.596,0.595,0.595,0.594,0.594,0.593,0.592,0.592,0.591,0.59,0.59,0.59,0.589,0.589,0.588,0.587,0.587,0.586,0.586,0.586,0.585,0.585,0.585,0.584,0.583,0.583,0.582,0.581,0.581,0.581,0.58,0.579,0.579,0.579,0.578,0.578,0.578,0.578,0.578,0.578,0.578,0.578,0.578,0.578,0.579,0.581,0.581,0.582,0.583,0.583,0.585,0.586,0.587,0.587,0.588,0.588,0.588,0.588,0.588,0.588,0.588,0.588,0.588,0.588,0.588,0.588,0.588,0.588,0.588,0.588,0.588,0.588,0.588,0.588,0.588,0.589,0.589,0.589,0.589,0.589,0.59,0.59,0.591,0.591,0.592,0.593,0.593,0.593,0.594,0.595,0.595,0.596,0.596,0.596,0.596,0.596,0.596,0.595,0.595,0.594,0.593,0.592,0.591,0.59,0.589,0.588,0.587,0.586,0.586,0.585,0.584,0.584,0.583,0.582,0.582,0.582,0.583,0.583,0.583,0.583,0.583,0.583,0.584,0.584,0.585,0.585,0.585,0.586,0.586,0.586,0.586,0.586,0.585,0.585,0.585,0.584,0.584,0.584,0.583,0.583,0.583,0.583,0.582,0.582,0.582,0.582,0.582,0.581,0.581,0.581,0.581,0.581,0.58,0.58,0.58,0.58,0.58,0.58,0.58,0.58,0.58,0.579,0.579,0.579,0.579,0.579,0.579,0.579,0.579,0.846,0.846,0.846,0.847,0.848,0.848,0.849,0.849,0.848,0.847,0.847,0.847,0.847,0.848,0.85,0.85,0.85,0.85,0.85,0.85,0.85,0.85,0.85,0.85,0.85,0.847,0.844,0.844,0.841,0.838,0.838,0.834,0.834,0.829,0.824,0.824,0.818,0.813,0.813,0.809,0.809,0.813,0.801,0.801,0.806,0.806,0,0,0,0,0,0,0,0,0,0,0,0.7,0.7,0.696,0.695,0.695,0.694,0.694,0.694,0.692,0.691,0.691,0.69,0.689,0.688,0.688,0.687,0.687,0.687,0.687,0.687,0.687,0.686,0.686,0.686,0.685,0.685,0.685,0.684,0.683,0.683,0.682,0.681,0.681,0.681,0.68,0.68,0.68,0.68,0.68,0.68,0.68,0.68,0.68,0.68,0.681,0.681,0.681,0.681,0.682,0.683,0.683,0.684,0.685,0.686,0.686,0.687,0.688,0.688,0.689,0.69,0.69,0.69,0.69,0.691,0.691,0.691,0.691,0.691,0.691,0.691,0.69,0.69,0.69,0.69,0.689,0.689,0.689,0.688,0.687,0.687,0.687,0.686,0.686,0.685,0.684,0.684,0.683,0.683,0.683,0.683,0.682,0.682,0.682,0.682,0.683,0.683,0.683,0.683,0.683,0.683,0.683,0.684,0.684,0.685,0.685,0.686,0.686,0.687,0.687,0.687,0.688,0.689,0.689,0.688,0.688,0.688,0.687,0.687,0.687,0.686,0.684,0.684,0.683,0.682,0.682,0.681,0.681,0.681,0.68,0.679,0.679,0.678,0.677,0.677,0.677,0.677,0.677,0.677,0.677,0.678,0.679,0.679,0.681,0.682,0.687,0.687,0.691,0.694,0.699,0.699,0.702,0.703,0.703,0.703,0.703,0.704,0.704,0.704,0.704,0.703,0.703,0.703,0.703,0.703,0.703,0.703,0.702,0.702,0.702,0.701,0.701,0.701,0.7,0.7,0.7,0.699,0.699,0.699
0,0,0,0,0,0,0,0,0,0,0,0,0,0,0,0,0,0,0,0,0,0,0,0,0,0,0,1.031,1.031,1.032,1.031,1.031,1.036,1.037,1.037,1.038,1.041,1.041,1.043,1.046,1.049,1.049,1.052,1.054,1.054,1.056,1.058,1.058,1.06,0,0,0,0,0,0,0,0,0,0,0,0,0,0,0,0,0,0,0,0,0,0,0,0,0,0,0,0,0,0,0,0,0,0,0,0,0,0,0,0,0,0,0.679,0.679,0.677,0.675,0.675,0.674,0.673,0.673,0.671,0.67,0.67,0.667,0.666,0.666,0.664,0.664,0.664,0.664,0.664,0.664,0.664,0.663,0.663,0.664,0.664,0.664,0.664,0.663,0.661,0.661,0.657,0.657,0,0.648,0.642,0.642,0.637,0.637,0.632,0.629,0.629,0.627,0.625,0.625,0.623,0.621,0.621,0.62,0.617,0.617,0.614,0.611,0.611,0.609,0.607,0.607,0.605,0.603,0.603,0.601,0.6,0.6,0.598,0.596,0.596,0.595,0.593,0.593,0.591,0.589,0.589,0.588,0.587,0.587,0.587,0.587,0.587,0.586,0.586,0.586,0.586,0.585,0.585,0.585,0.586,0.586,0.586,0.586,0.586,0.586,0.586,0.587,0.588,0.588,0.589,0,0,0,0,0,0,0,0,0,0,0,0,0,0,0,0,0,0,0.587,0.586,0.586,0.586,0.587,0.587,0.587,0.587,0.588,0.588,0.588,0.588,0.588,0.588,0.587,0.587,0.586,0.584,0.584,0.582,0.582,0.583,0,0,0.58,0.58,0.572,0.572,0.57,0.57,0,0,0,0,0,0,0,0,0,0,0.59,0.59,0.592,0.592,0.592,0.592,0.592,0.592,0.592,0.591,0.59,0.589,0.589,0.589,0.589,0.589,0.589,0.589,0.589,0.589,0.59,0.591,0.593,0.593,0.595,0.595,0.595,0.595,0.595,0.595,0.594,0.594,0.594,0.593,0.592,0.592,0.591,0.589,0.589,0.589,0.589,0.589,0.588,0.587,0.587,0.586,0.586,0.586,0.585,0.585,0.585,0.584,0.583,0.583,0.582,0.581,0.581,0.581,0.58,0.579,0.579,0.579,0.578,0.578,0.578,0.578,0.578,0.578,0.578,0.578,0.578,0.579,0.579,0.581,0.581,0.582,0.583,0.583,0.585,0.586,0.587,0.587,0.588,0.588,0.588,0.588,0.588,0.588,0.588,0.588,0.588,0.588,0.588,0.589,0.589,0.589,0.589,0.589,0.589,0.589,0.589,0.589,0.589,0.589,0.589,0.589,0.59,0.59,0.59,0.591,0.591,0.591,0.592,0.593,0.593,0.594,0.594,0.595,0.595,0.595,0.595,0.595,0.595,0.595,0.594,0.593,0.593,0.593,0.591,0.591,0.59,0.589,0.589,0.588,0.586,0.586,0.585,0.584,0.584,0.584,0.583,0.583,0.583,0.583,0.583,0.584,0.584,0.584,0.584,0.584,0.585,0.585,0.585,0.585,0.586,0.586,0.585,0.585,0.585,0.585,0.585,0.585,0.584,0.584,0.583,0.583,0.583,0.582,0.582,0.582,0.582,0.582,0.581,0.581,0.581,0.58,0.58,0.58,0.58,0.58,0.58,0.58,0.58,0.579,0.579,0.579,0.579,0.579,0.579,0.579,0.579,0.579,0.579,0.578,0.578,0.578,0.579,0.847,0.847,0.847,0.847,0.848,0.847,0.847,0.847,0.845,0.845,0.845,0.845,0.845,0.845,0.846,0.846,0.847,0.848,0.847,0.847,0.847,0.846,0.845,0.845,0.845,0.843,0.843,0.839,0.835,0.835,0.831,0.826,0.826,0.822,0.816,0.816,0.809,0.804,0.804,0.804,0.809,0,0.801,0.789,0.789,0.789,0,0,0,0,0,0,0,0,0,0,0,0.693,0.693,0.691,0.69,0.69,0.69,0.689,0.689,0.689,0.688,0.688,0.687,0.687,0.687,0.687,0.686,0.686,0.687,0.687,0.687,0.687,0.686,0.686,0.686,0.685,0.684,0.684,0.684,0.683,0.683,0.682,0.682,0.681,0.681,0.681,0.681,0.681,0.681,0.681,0.681,0.681,0.681,0.681,0.681,0.682,0.682,0.682,0.682,0.683,0.683,0.683,0.684,0.685,0.686,0.686,0.687,0.688,0.688,0.689,0.69,0.69,0.69,0.691,0.691,0.691,0.691,0.691,0.691,0.691,0.691,0.69,0.69,0.69,0.69,0.689,0.689,0.689,0.688,0.688,0.688,0.687,0.686,0.686,0.686,0.685,0.685,0.684,0.684,0.684,0.683,0.683,0.683,0.683,0.683,0.683,0.683,0.683,0.683,0.683,0.683,0.683,0.684,0.684,0.685,0.685,0.686,0.686,0.686,0.687,0.687,0.687,0.688,0.688,0.688,0.688,0.688,0.687,0.687,0.687,0.686,0.685,0.685,0.684,0.683,0.683,0.682,0.682,0.682,0.681,0.679,0.679,0.678,0.677,0.676,0.676,0.676,0.676,0.676,0.676,0.676,0.676,0.676,0.678,0.679,0.683,0.683,0.687,0.691,0.696,0.696,0.7,0.702,0.703,0.703,0.703,0.703,0.703,0.704,0.704,0.703,0.703,0.703,0.703,0.703,0.703,0.703,0.702,0.702,0.702,0.701,0.701,0.701,0.7,0.699,0.699,0.699,0.699,0.699
