0.911,0.911,0.911,0.911,0.912,0.911,0.911,0.911,0.911,0.911,0.911,0.911,0.91,0.907,0.907,0.906,0.906,0.906,0.906,0.906,0.906,0.907,0.907,0.907,0.907,0.906,0.906,0,0,0,0,0,0,0,0,0,0,0,0,0,0.968,0.968,0.97,0.972,0.971,0.97,0.97,0.968,0.964,0.964,0.964,0.976,0.976,0.955,0.955,0,0,0,0,0,0,0,0,0,0,0,0,0,0,0,0,0,0,0,0,0,0,0,0,0,0,0,0,0,0,0,0,0,0,1.007,1.005,1.005,1.006,1.008,1.008,1.008,1.011,1.011,1.013,1.016,1.019,1.019,1.021,0,0,0,0,0,0,0,0,0,0,0,0,0,0,0,0,0,1.51,1.51,1.513,1.515,1.515,1.517,1.519,1.519,1.522,1.522,1.522,1.519,1.517,1.517,1.51,1.506,1.506,1.495,1.476,1.476,1.459,1.459,1.44,1.417,1.417,1.397,1.382,1.382,1.369,1.364,1.364,1.357,1.35,1.35,1.344,1.339,1.339,1.336,1.33,1.33,1.327,1.322,1.322,1.32,1.318,1.318,1.317,1.315,1.315,1.315,1.313,1.313,1.313,1.31,1.305,1.305,1.302,1.295,1.295,1.29,1.285,1.285,1.282,1.277,1.277,1.274,1.27,1.27,1.266,1.265,1.263,1.263,1.263,1.262,1.262,1.259,1.256,1.256,1.254,1.253,1.253,1.251,1.248,1.248,1.245,1.242,1.24,1.236,1.233,1.23,1.23,1.226,1.221,1.221,1.214,1.203,1.203,1.17,1.17,1.17,1.149,1.124,1.102,1.102,1.09,1.08,1.08,1.073,1.065,1.065,1.065,0,0,1.045,1.045,1.041,1.035,1.034,1.034,1.034,1.033,1.033,1.033,1.032,1.032,1.031,1.03,1.03,1.03,1.028,1.028,1.028,1.028,1.028,1.028,1.028,1.029,0,1.033,1.033,1.034,1.034,1.036,1.035,1.035,1.034,1.032,1.032,1.029,1.027,1.027,1.024,1.022,1.022,1.02,1.014,1.014,1.01,1.004,1.004,1.001,0.999,0.999,0.999,0.998,0.998,0.998,0.998,0.999,1.001,1.001,1.005,1.009,1.009,1.014,1.018,1.019,1.019,1.021,1.021,1.021,1.021,1.022,1.022,1.022,1.02,1.02,1.019,1.019,1.02,1.02,1.02,1.021,1.021,1.02,1.02,1.02,1.019,1.019,1.02,1.02,1.018,1.018,1.018,1.018,1.018,1.018,1.017,1.017,1.017,1.017,1.016,1.016,1.016,3.655,3.642,3.616,3.616,3.591,3.566,3.566,3.542,3.517,3.505,3.505,3.505,3.505,3.505,3.505,3.493,3.493,3.47,3.458,3.458,3.447,3.435,3.435,3.435,3.424,3.412,3.412,3.401,3.39,3.39,3.39,3.379,3.379,3.367,3.345,3.345,3.335,3.302,3.302,3.281,3.25,3.24,3.24,3.22,3.2,3.2,3.19,3.18,3.18,3.18,3.18,3.18,3.18,3.18,3.18,3.18,3.19,3.19,3.2,3.2,3.2,3.2,3.2,3.19,3.19,3.19,3.18,3.18,3.17,3.16,3.141,3.141,3.131,3.122,3.122,3.112,3.103,3.103,3.084,3.075,3.075,3.075,3.066,3.066,3.057,3.057,3.057,3.057,3.048,3.048,3.048,3.039,3.021,3.021,3.012,3.003,3.003,2.977,2.96,2.96,2.934,2.918,2.918,2.901,2.893,2.869,2.869,2.853,2.829,2.829,2.822,2.814,2.814,2.799,2.776,2.776,2.754,2.732,2.732,2.703,2.682,2.682,2.654,2.627,2.627,2.607,2.587,2.587,2.568,2.555,2.555,2.536,2.53,2.524,2.517,2.505,2.493,2.493,2.481,2.475,2.475,2.463,2.457,2.457,2.451,2.445,2.445,2.445,2.44,2.44,2.434,2.434,2.428,2.428,2.422,2.422,2.422,2.417,2.411,2.411,2.405,2.4,2.4,2.394,2.389,2.389,2.377,2.372,2.361,2.361,2.345,2.329,2.329,2.313,2.298,2.298,2.277,2.262,2.262,2.243,2.223,2.223,2.204,2.19,2.19,2.176,2.162,2.162,2.144,2.131,2.131,2.118,2.113,2.113,2.109,2.105,2.105,2.105,2.105,2.105,2.109,2.109,2.109,2.113,2.113,2.109,2.109,2.109,2.113,2.113,2.113,2.113,2.113,2.118,2.118,2.118,2.118,2.118,2.118,2.122,2.122,2.122,2.113,2.113,2.113,2.109,2.109,2.1,2.088,2.088,2.088,0,0,2.01,2.01,1.964,1.931,1.931,1.927,1.927,1.923,1.923,1.923,1.923,1.923,1.923,1.927,1.927,1.927,1.931,1.931,1.934,1.934,1.934,1.934,1.934,1.934,1.938,1.934,1.934,1.934,1.934,1.934,1.934,1.934,1.934,1.934,1.934,1.934,1.938,1.938,1.938,1.942,1.945,1.945,1.949,1.949,1.949,1.945,1.942,1.942,1.938,1.934,1.934,1.923,1.916,1.916,1.902,1.891,1.891,1.878,1.864,1.864,1.851,1.837,1.837,1.824,1.811,1.811,1.805,1.796,1.796,1.792,1.786,1.78,1.78,1.777,1.777,1.777,1.777,1.774,1.774,1.774,1.777,1.777,1.777,1.777,1.777,1.777,1.774,1.765,1.765,1.756,1.747,1.747,1.738,1.726
0.911,0.911,0.911,0.911,0.912,0.912,0.911,0.911,0.911,0.911,0.911,0.911,0.91,0.909,0.909,0.907,0.907,0.907,0.907,0.907,0.907,0,0,0.907,0.907,0.906,0.906,0,0,0,0,0,0,0,0,0,0,0,0,0,0,0,0.983,0.983,0.982,0.98,0.98,0.979,0.979,0,0.976,0.976,0.976,0,0,0,0,0,0,0,0,0,0,0,0,0,0,0,0,0,0,0,0,0,0,0,0,0,0,0,0,0,0,0,0,0,0,0,0,1.007,1.007,1.007,1.008,0,1.01,1.01,1.011,1.011,1.013,1.016,1.019,1.019,1.021,0,0,0,0,0,0,0,0,0,0,0,0,0,0,0,0,0,0,0,0,0,0,0,0,0,1.526,1.526,1.526,1.526,1.522,1.522,1.517,1.51,1.51,1.502,1.482,1.482,1.465,1.465,1.44,1.417,1.417,1.397,1.382,1.382,1.369,1.362,1.362,1.353,1.346,1.346,1.343,1.337,1.337,1.334,1.33,1.33,1.327,1.324,1.324,1.322,1.322,1.322,1.322,1.32,1.32,1.32,1.318,1.318,1.318,1.315,1.31,1.31,1.305,1.298,1.298,1.294,1.287,1.287,1.282,1.277,1.277,1.274,1.27,1.27,1.266,1.265,1.263,1.263,1.262,1.26,1.26,1.257,1.254,1.254,1.253,1.249,1.249,1.246,1.243,1.243,1.24,1.237,1.237,1.233,1.23,1.227,1.227,1.223,1.22,1.22,1.214,1.203,1.203,1.191,1.191,1.17,1.149,1.149,1.127,1.127,1.113,1.102,1.102,1.102,1.095,1.095,1.095,0,0,1.051,1.045,1.045,1.036,1.035,1.035,1.032,1.032,1.032,1.031,1.031,1.031,1.029,1.028,1.028,1.028,1.027,1.027,1.027,1.027,1.027,1.028,1.028,0,0,1.033,1.033,1.035,1.035,1.036,1.035,1.035,1.035,1.032,1.032,1.03,1.028,1.028,1.024,1.022,1.022,1.02,1.019,1.019,1.017,1.015,1.015,1.013,1.013,1.012,1.012,1.012,1.012,1.012,1.01,1.01,1.01,1.01,1.011,1.013,1.013,1.016,1.017,1.019,1.019,1.021,1.022,1.022,1.024,1.025,1.026,1.026,1.025,1.025,1.024,1.024,1.024,1.024,1.024,1.024,1.023,1.022,1.021,1.021,1.02,1.02,1.021,1.02,1.019,1.019,1.019,1.018,1.018,1.018,1.018,1.017,1.017,1.017,1.019,3.708,3.668,3.668,3.655,3.629,3.629,3.604,3.579,3.579,3.542,3.529,3.517,3.517,3.517,3.505,3.505,3.505,3.505,3.505,3.493,3.47,3.47,3.458,3.458,3.458,3.447,3.435,3.424,3.424,3.412,3.401,3.401,3.39,3.39,3.39,3.379,3.356,3.356,3.335,3.313,3.313,3.292,3.261,3.24,3.24,3.23,3.21,3.21,3.19,3.18,3.18,3.18,3.18,3.18,3.18,3.18,3.18,3.18,3.18,3.19,3.2,3.2,3.19,3.19,3.19,3.18,3.18,3.18,3.17,3.17,3.17,3.16,3.151,3.151,3.141,3.131,3.131,3.122,3.112,3.112,3.103,3.094,3.094,3.084,3.075,3.075,3.066,3.057,3.057,3.057,3.048,3.048,3.048,3.039,3.03,3.03,3.021,3.003,3.003,2.986,2.968,2.968,2.943,2.926,2.926,2.91,2.893,2.869,2.869,2.853,2.829,2.829,2.822,2.799,2.799,2.783,2.761,2.761,2.732,2.71,2.71,2.689,2.661,2.661,2.634,2.613,2.613,2.594,2.574,2.574,2.561,2.549,2.549,2.536,2.524,2.524,2.517,2.505,2.493,2.493,2.481,2.475,2.475,2.463,2.457,2.457,2.451,2.445,2.445,2.445,2.44,2.44,2.44,2.434,2.428,2.428,2.428,2.422,2.422,2.417,2.411,2.411,2.405,2.4,2.4,2.394,2.389,2.389,2.377,2.367,2.356,2.356,2.334,2.318,2.318,2.303,2.287,2.287,2.267,2.247,2.247,2.228,2.209,2.209,2.195,2.176,2.176,2.167,2.153,2.153,2.14,2.126,2.126,2.118,2.113,2.113,2.109,2.105,2.105,2.105,2.105,2.105,2.109,2.109,2.109,2.109,2.109,2.109,2.109,2.109,2.109,2.113,2.113,2.109,2.109,2.113,2.113,2.113,2.113,2.113,2.113,2.113,2.113,2.113,2.113,2.109,2.105,2.1,2.1,2.092,2.079,2.079,2.079,0,0,2.006,2.006,1.964,1.934,1.934,1.931,1.931,1.927,1.927,1.927,1.927,1.927,1.927,1.927,1.927,1.927,1.931,1.934,1.934,1.934,1.934,1.938,1.938,1.938,1.938,1.934,1.934,1.934,1.934,1.934,1.934,1.934,1.934,1.934,1.934,1.934,1.934,1.938,1.938,1.942,1.945,1.945,1.945,1.949,1.949,1.949,1.945,1.945,1.945,1.938,1.938,1.931,1.92,1.92,1.909,1.895,1.895,1.881,1.867,1.867,1.854,1.841,1.841,1.828,1.815,1.815,1.805,1.799,1.799,1.792,1.786,1.783,1.783,1.78,1.777,1.777,1.777,1.777,1.777,1.777,1.777,1.78,1.78,1.78,1.78,1.78,1.777,1.768,1.768,1.759,1.747,1.747,1.738,1.726
0.911,0.911,0.911,0.911,0.912,0.912,0.911,0.911,0.911,0.911,0.911,0.911,0.91,0.909,0.909,0.907,0.907,0.907,0.907,0.907,0.907,0.91,0.91,0.907,0.907,0.906,0.906,0,0,0,0,0,0,0,0,0,0,0,0,0,0,0,0.983,0.983,0.982,0.98,0.98,0.979,0.979,0,0.976,0.976,0.976,0,0,0,0,0,0,0,0,0,0,0,0,0,0,0,0,0,0,0,0,0,0,0,0,0,0,0,0,0,0,0,0,0,0,0,1.008,1.007,1.007,1.007,1.008,1.01,1.01,1.01,1.011,1.011,1.013,1.015,1.018,1.018,1.02,1.022,1.022,1.024,1.025,1.025,0,0,0,0,0,0,0,0,0,0,0,0,0,0,0,0,0,0,0,0,0,1.531,1.531,1.528,1.526,1.526,1.522,1.517,1.517,1.508,1.491,1.491,1.474,1.474,1.449,1.421,1.421,1.399,1.399,0,1.369,1.362,1.362,1.353,1.346,1.346,1.343,1.337,1.337,1.334,1.33,1.33,1.327,1.325,1.325,1.325,1.324,1.324,1.325,1.325,1.325,1.325,1.325,1.324,1.324,1.32,1.315,1.315,1.31,1.303,1.303,1.295,1.29,1.29,1.284,1.279,1.279,1.274,1.27,1.27,1.266,1.265,1.263,1.263,1.262,1.26,1.26,1.257,1.254,1.254,1.253,1.249,1.249,1.246,1.243,1.243,1.24,1.237,1.237,1.233,1.23,1.227,1.227,1.223,1.22,1.22,1.214,1.207,1.207,1.2,1.2,1.185,1.167,1.167,1.146,1.134,1.134,1.124,1.124,1.11,1.095,1.095,1.095,0,0,0,0,0,0,1.035,1.035,1.032,1.032,1.032,1.031,1.031,1.031,1.029,1.028,1.028,1.028,1.027,1.027,1.027,1.027,1.027,1.028,1.028,0,0,1.033,1.033,1.036,1.036,1.037,1.037,1.037,1.036,1.033,1.033,1.032,1.029,1.029,1.026,1.024,1.024,1.022,1.02,1.02,1.02,1.02,1.019,1.019,1.019,1.018,1.018,1.017,1.017,1.017,1.015,1.015,1.015,1.014,1.014,0,0,1.017,1.017,1.019,1.019,1.021,1.022,1.022,1.025,1.026,1.027,1.027,1.027,1.027,1.026,1.026,1.026,1.026,1.025,1.025,1.025,1.024,1.023,1.023,1.022,1.022,1.022,1.021,1.02,1.02,1.019,1.019,1.019,1.018,1.018,3.776,3.776,3.748,3.748,3.721,3.681,3.681,3.655,3.642,3.642,3.604,3.579,3.579,3.554,3.529,3.517,3.517,3.517,3.529,3.529,3.529,3.517,3.517,3.505,3.493,3.493,3.482,3.47,3.47,3.47,3.458,3.435,3.435,3.424,3.401,3.401,3.39,3.39,3.39,3.379,3.356,3.356,3.335,3.313,3.313,3.292,3.271,3.261,3.261,3.24,3.21,3.21,3.2,3.19,3.19,3.19,3.18,3.18,3.18,3.18,3.18,3.18,3.18,3.19,3.2,3.2,3.19,3.19,3.19,3.18,3.18,3.18,3.17,3.17,3.17,3.16,3.151,3.151,3.141,3.141,3.141,3.131,3.112,3.112,3.103,3.094,3.094,3.084,3.075,3.075,3.066,3.057,3.057,3.057,3.048,3.048,3.048,3.039,3.03,3.03,3.021,3.012,3.012,2.994,2.977,2.977,2.951,2.934,2.934,2.91,2.893,2.877,2.877,2.853,2.837,2.837,2.822,2.799,2.799,2.783,2.761,2.761,2.732,2.71,2.71,2.689,2.661,2.661,2.634,2.613,2.613,2.594,2.574,2.574,2.561,2.549,2.549,2.536,2.524,2.524,2.517,2.505,2.493,2.493,2.481,2.475,2.475,2.463,2.457,2.457,2.451,2.445,2.445,2.445,2.44,2.44,2.44,2.434,2.428,2.428,2.428,2.422,2.422,2.417,2.411,2.411,2.405,2.4,2.4,2.394,2.389,2.389,2.377,2.367,2.356,2.356,2.334,2.318,2.318,2.303,2.287,2.287,2.267,2.247,2.247,2.228,2.209,2.209,2.195,2.176,2.176,2.167,2.153,2.153,2.14,2.126,2.126,2.122,2.113,2.113,2.113,2.109,2.109,2.109,2.109,2.109,2.109,2.109,2.109,2.109,2.109,2.109,2.113,2.109,2.109,2.113,2.113,2.109,2.109,2.113,2.113,2.113,2.113,2.113,2.113,2.113,2.113,2.113,2.113,2.109,2.105,2.1,2.1,2.092,2.079,2.079,2.079,0,0,2.006,2.006,1.964,1.942,1.942,1.934,1.934,1.934,1.934,1.931,1.931,1.931,1.931,1.934,1.934,1.934,1.934,1.934,1.938,1.938,1.938,1.938,1.938,1.938,1.938,1.938,1.938,1.938,1.934,1.934,1.934,1.934,1.934,1.934,1.934,1.934,1.934,1.938,1.938,1.942,1.945,1.945,1.945,1.949,1.953,1.949,1.949,1.949,1.945,1.942,1.942,1.931,1.923,1.923,1.909,1.898,1.898,1.885,1.871,1.871,1.857,1.844,1.844,1.831,1.821,1.821,1.811,1.802,1.802,1.796,1.792,1.786,1.786,1.78,1.78,1.78,1.78,1.78,1.783,1.78,1.78,1.783,1.783,1.783,1.783,1.783,1.78,1.774,1.774,1.762,1.75,1.75,1.738,1.726
0.911,0.912,0.911,0.911,0.912,0.912,0.911,0.911,0.911,0.911,0.912,0.912,0.911,0.91,0.91,0.909,0.908,0.908,0.908,0.909,0.909,0.91,0.91,0.91,0.91,0.91,0.91,0,0,0,0,0,0,0,0,0.986,0.986,0.989,0.989,0.991,0.991,0.991,0.992,0.993,0.993,0,0,0,0,0,0,0,0.995,0.995,0.995,0,0,0,0,0,0,0,0,0,0,0,1.016,1.016,1.016,1.016,1.016,1.016,1.017,0,0,0,0,0,0,0,0,0,0,0,0,0,0,0,1.008,1.008,1.009,1.009,1.009,1.01,1.01,1.011,1.011,1.011,1.013,1.015,1.018,1.018,1.02,1.021,1.021,1.023,1.025,1.025,0,0,0,0,0,0,0,0,0,0,0,0,0,0,0,0,0,0,0,0,0,1.531,1.531,1.528,1.526,1.526,1.522,1.517,1.517,1.508,1.491,1.491,1.474,1.474,1.449,1.421,1.421,1.397,1.38,1.38,1.364,1.357,1.357,1.348,1.343,1.343,1.337,1.334,1.334,1.332,1.329,1.329,1.327,1.325,1.325,1.325,1.324,1.324,1.325,1.325,1.325,1.325,1.325,1.324,1.324,1.32,1.315,1.315,1.31,1.303,1.303,1.295,1.29,1.29,1.284,1.279,1.279,1.274,1.27,1.27,1.266,1.263,1.262,1.262,1.262,1.259,1.259,1.256,1.253,1.253,1.249,1.246,1.246,1.243,1.24,1.24,1.237,1.233,1.233,1.23,1.227,1.227,1.224,1.221,1.217,1.217,1.213,1.207,1.207,1.2,1.191,1.185,1.167,1.167,1.146,1.134,1.134,1.124,1.124,1.11,1.095,1.095,1.095,0,0,0,0,0,0,1.035,1.034,1.031,1.031,1.031,1.03,1.029,1.029,1.028,1.027,1.027,1.027,1.027,1.027,1.026,1.026,1.027,1.028,1.028,0,0,1.033,1.033,1.036,1.036,1.037,1.037,1.037,1.036,1.033,1.033,1.032,1.029,1.029,1.026,1.024,1.024,1.022,1.02,1.02,1.02,1.02,1.019,1.019,1.019,1.018,1.018,1.017,1.017,1.017,1.015,1.014,1.014,1.014,1.014,1.014,1.014,1.015,1.017,1.018,1.018,1.02,1.022,1.022,1.025,1.026,1.027,1.027,1.027,1.027,1.026,1.026,1.026,1.026,1.025,1.025,1.025,1.024,1.023,1.023,1.022,1.022,1.022,1.021,1.02,1.02,1.019,1.019,1.019,1.018,1.018,3.776,3.776,3.748,3.748,3.721,3.681,3.681,3.655,3.642,3.642,3.604,3.579,3.579,3.554,3.529,3.517,3.517,3.517,3.529,3.529,3.529,3.517,3.517,3.505,3.493,3.493,3.482,3.47,3.47,3.47,3.458,3.435,3.435,3.424,3.401,3.401,3.39,3.39,3.39,3.379,3.356,3.356,3.335,3.313,3.313,3.292,3.271,3.261,3.261,3.24,3.21,3.21,3.2,3.19,3.19,3.19,3.18,3.18,3.18,3.18,3.18,3.18,3.18,3.18,3.19,3.19,3.19,3.19,3.18,3.18,3.18,3.18,3.17,3.17,3.17,3.16,3.151,3.151,3.141,3.141,3.141,3.131,3.112,3.112,3.103,3.094,3.094,3.084,3.075,3.075,3.066,3.057,3.057,3.057,3.048,3.048,3.048,3.039,3.03,3.03,3.021,3.012,3.012,2.994,2.977,2.977,2.951,2.934,2.926,2.91,2.893,2.877,2.877,2.853,2.829,2.829,2.814,2.791,2.791,2.768,2.746,2.746,2.717,2.696,2.696,2.668,2.64,2.64,2.62,2.594,2.594,2.581,2.561,2.561,2.549,2.542,2.542,2.53,2.524,2.524,2.511,2.505,2.493,2.493,2.481,2.469,2.469,2.463,2.457,2.457,2.451,2.445,2.445,2.445,2.44,2.44,2.44,2.434,2.428,2.428,2.422,2.422,2.422,2.417,2.411,2.411,2.405,2.4,2.4,2.389,2.383,2.383,2.372,2.361,2.356,2.345,2.329,2.308,2.308,2.293,2.272,2.272,2.252,2.233,2.233,2.214,2.199,2.199,2.185,2.171,2.171,2.158,2.149,2.149,2.14,2.126,2.126,2.122,2.113,2.113,2.113,2.109,2.109,2.109,2.109,2.109,2.109,2.109,2.109,2.109,2.109,2.109,2.113,2.109,2.109,2.109,2.109,2.109,2.109,2.109,2.109,2.105,2.105,2.105,2.105,2.109,2.109,2.109,2.109,2.105,2.1,2.096,2.096,2.088,2.071,2.071,2.071,2.034,2.034,2.002,1.971,1.964,1.942,1.942,1.934,1.934,1.934,1.934,1.931,1.931,1.931,1.931,1.934,1.934,1.934,1.934,1.934,1.938,1.938,1.938,1.938,1.938,1.938,1.938,1.938,1.938,1.938,1.934,1.934,1.934,1.934,1.934,1.934,1.934,1.934,1.934,1.938,1.938,1.942,1.945,1.945,1.945,1.949,1.949,1.949,1.949,1.949,1.945,1.942,1.942,1.931,1.923,1.923,1.909,1.898,1.898,1.885,1.871,1.871,1.857,1.844,1.844,1.831,1.821,1.821,1.811,1.802,1.799,1.796,1.792,1.786,1.786,1.78,1.78,1.78,1.78,1.78,1.783,1.78,1.78,1.783,1.783,1.783,1.783,1.783,1.78,1.774,1.774,1.762,1.75,1.75,1.738,1.723
0.911,0.912,0.912,0.912,0.913,0.911,0.911,0.911,0.912,0.912,0.912,0.912,0.912,0.911,0.911,0.91,0.91,0.91,0.91,0.91,0.91,0.91,0.91,0.911,0.911,0.911,0.911,0,0,0,0,0,0,0,0,0.986,0.986,0.989,0.989,0.991,0.991,0.991,0.992,0.993,0.993,0.999,1,1,1,1.001,1.001,1.001,0.995,0.995,0.995,0,1.003,1.003,1.003,1.007,1.007,1.007,1.009,1.012,0,1.015,1.015,1.016,1.016,1.016,1.016,1.016,1.016,0,0,0,0,0,0,0,0,0,0,0,0,1.016,1.015,1.015,1.015,1.011,1.011,1.011,1.011,1.011,1.011,1.012,1.013,1.013,1.013,1.015,1.018,1.018,1.02,1.021,1.021,1.023,1.025,1.025,0,0,0,0,0,0,0,0,0,0,0,0,0,0,0,0,0,0,0,0,0,0,0,1.533,1.528,1.528,1.524,1.522,1.522,1.513,1.495,1.495,1.48,1.48,0,1.421,1.421,1.397,1.38,1.38,1.36,1.351,1.351,1.344,1.336,1.336,1.334,1.33,1.33,1.33,1.329,1.329,1.327,1.327,1.327,1.327,1.327,1.327,1.329,1.329,1.329,1.329,1.329,1.327,1.327,1.324,1.32,1.32,1.313,1.307,1.307,1.298,1.294,1.294,1.285,1.281,1.281,1.276,1.27,1.27,1.266,1.263,1.26,1.26,1.26,1.257,1.257,1.254,1.249,1.249,1.248,1.243,1.243,1.24,1.236,1.236,1.233,1.23,1.23,1.227,1.224,1.224,1.223,1.22,1.217,1.217,1.213,1.208,1.208,1.203,1.191,1.191,1.179,1.179,1.163,1.153,1.153,1.144,1.129,1.129,1.114,1.114,1.13,1.13,0,0,0,0,0,0,1.034,1.03,1.029,1.029,1.028,1.027,1.027,1.027,1.026,1.026,1.026,1.025,1.025,1.025,1.025,1.026,1.027,1.027,1.029,1.031,1.031,1.033,1.036,1.036,1.037,1.038,1.038,1.037,1.035,1.035,1.033,1.031,1.031,1.028,1.026,1.026,1.023,1.022,1.022,1.021,1.021,1.021,1.021,1.02,1.02,1.02,1.019,1.017,1.017,1.015,1.014,1.014,1.014,1.014,1.014,1.014,1.015,1.017,1.018,1.018,1.02,1.023,1.023,1.025,1.026,1.028,1.028,1.028,1.028,1.027,1.027,1.027,1.026,1.026,1.026,1.026,1.025,1.024,1.024,1.023,1.023,1.023,1.023,1.021,1.021,1.02,1.02,1.02,1.02,1.02,1.021,3.776,3.748,3.748,3.735,3.694,3.694,3.668,3.642,3.642,3.616,3.591,3.591,3.566,3.542,3.529,3.529,3.529,3.529,3.542,3.542,3.542,3.542,3.529,3.517,3.517,3.505,3.493,3.482,3.482,3.47,3.458,3.458,3.435,3.412,3.412,3.401,3.39,3.39,3.379,3.356,3.356,3.335,3.313,3.313,3.292,3.271,3.261,3.261,3.24,3.22,3.22,3.21,3.2,3.2,3.19,3.19,3.19,3.18,3.18,3.18,3.18,3.18,3.18,3.19,3.19,3.19,3.19,3.18,3.18,3.18,3.18,3.18,3.18,3.17,3.17,3.16,3.16,3.151,3.151,3.151,3.131,3.122,3.122,3.112,3.094,3.094,3.084,3.075,3.075,3.066,3.057,3.057,3.057,3.048,3.048,3.048,3.039,3.03,3.03,3.021,3.012,3.012,3.003,2.977,2.977,2.96,2.943,2.926,2.926,2.901,2.877,2.877,2.853,2.829,2.829,2.814,2.783,2.783,2.754,2.732,2.732,2.703,2.675,2.675,2.654,2.627,2.627,2.607,2.587,2.587,2.574,2.555,2.555,2.549,2.542,2.542,2.53,2.524,2.524,2.511,2.499,2.487,2.487,2.481,2.469,2.469,2.463,2.451,2.451,2.451,2.445,2.445,2.44,2.44,2.44,2.434,2.428,2.428,2.428,2.422,2.417,2.417,2.411,2.411,2.411,2.405,2.394,2.394,2.389,2.377,2.377,2.367,2.35,2.35,2.334,2.318,2.308,2.298,2.277,2.272,2.257,2.238,2.218,2.218,2.204,2.185,2.185,2.171,2.162,2.162,2.153,2.149,2.149,2.14,2.131,2.131,2.122,2.118,2.118,2.118,2.118,2.118,2.113,2.113,2.113,2.113,2.113,2.113,2.113,2.113,2.113,2.113,2.113,2.109,2.109,2.109,2.105,2.105,2.105,2.105,2.1,2.1,2.1,2.1,2.1,2.1,2.1,2.1,2.096,2.092,2.088,2.088,2.079,2.067,2.067,2.05,2.03,2.03,2.002,1.971,1.971,1.949,1.942,1.942,1.942,1.938,1.938,1.938,1.938,1.938,1.938,1.938,1.942,1.942,1.942,1.942,1.942,1.942,1.945,1.945,1.942,1.942,1.942,1.938,1.938,1.938,1.938,1.934,1.934,1.934,1.934,1.934,1.934,1.934,1.934,1.938,1.938,1.942,1.945,1.945,1.949,1.949,1.949,1.949,1.945,1.945,1.945,1.938,1.938,1.931,1.923,1.923,1.909,1.898,1.898,1.888,1.874,1.874,1.861,1.847,1.847,1.834,1.821,1.821,1.811,1.805,1.799,1.799,1.792,1.786,1.786,1.783,1.78,1.78,1.78,1.78,1.78,1.78,1.783,1.783,1.783,1.786,1.786,1.786,1.78,1.774,1.774,1.762,1.75,1.75,1.738,1.723
0.912,0.912,0.912,0.913,0.913,0.911,0.911,0.912,0.912,0.912,0.913,0.913,0.912,0.911,0.911,0.911,0.911,0.911,0.911,0.911,0.911,0.911,0.911,0.911,0.912,0.912,0,0,0,0,0,0,0,0,0,0.989,0.989,0.992,0.992,0.994,0.996,0.996,0.997,0.999,0.999,0.999,1,1,1,1.001,1.001,1.001,1.002,1.002,1.002,0,1.003,1.003,1.003,1.007,1.007,1.007,1.009,1.012,0,1.015,1.015,1.016,1.016,1.016,1.016,1.016,1.016,0,0,0,0,0,0,0,0,0,0,0,0,1.016,1.015,1.015,1.015,1.015,1.015,1.014,1.014,1.014,1.014,1.014,1.015,1.015,1.015,1.016,1.019,1.019,1.02,1.021,1.021,1.023,0,0,0,0,0,0,0,0,0,0,0,0,0,0,0,0,0,0,0,0,0,0,0,0,0,1.544,1.533,1.533,1.528,1.528,0,0,0,0,0,0,0,0,0,0,0,0,1.36,1.351,1.351,1.344,1.336,1.336,1.334,1.33,1.33,1.33,1.329,1.329,1.327,1.327,1.327,1.327,1.327,1.329,1.33,1.329,1.329,1.329,1.329,1.329,1.329,1.325,1.32,1.32,1.315,1.308,1.308,1.302,1.295,1.295,1.289,1.282,1.282,1.276,1.271,1.271,1.266,1.263,1.26,1.26,1.26,1.257,1.257,1.254,1.249,1.249,1.248,1.243,1.243,1.24,1.236,1.236,1.233,1.23,1.23,1.227,1.224,1.224,1.223,1.22,1.217,1.217,1.214,1.208,1.208,1.204,1.204,0,1.19,1.179,1.179,1.174,1.167,1.167,1.157,1.157,1.144,1.13,1.13,1.13,0,0,0,0,0,0,0,1.03,1.029,1.029,1.028,1.027,1.027,1.027,1.026,1.026,1.026,1.025,1.025,1.025,1.025,1.026,1.027,1.027,1.029,1.031,1.031,1.033,1.036,1.036,1.037,1.038,1.038,1.037,1.036,1.036,1.034,1.031,1.031,1.03,1.027,1.027,1.025,1.024,1.024,1.023,1.022,1.022,1.022,1.021,1.02,1.02,1.019,1.019,1.019,1.017,1.016,1.016,1.015,1.015,1.015,1.015,1.016,1.017,1.018,1.018,1.021,1.023,1.023,1.025,1.026,1.028,1.028,1.028,1.028,1.028,1.027,1.027,1.027,1.027,1.027,1.026,1.026,1.025,1.025,1.024,1.024,1.024,1.024,1.023,1.023,1.022,1.021,1.021,1.021,1.021,1.021,3.776,3.762,3.762,3.735,3.708,3.708,3.681,3.655,3.655,3.629,3.591,3.591,3.566,3.554,3.542,3.542,3.542,3.542,3.554,3.554,3.554,3.554,3.554,3.542,3.542,3.517,3.517,3.505,3.505,3.493,3.47,3.47,3.447,3.424,3.424,3.401,3.401,3.401,3.379,3.356,3.356,3.335,3.313,3.313,3.292,3.271,3.261,3.261,3.24,3.23,3.23,3.21,3.2,3.2,3.2,3.19,3.19,3.19,3.18,3.18,3.18,3.18,3.18,3.19,3.19,3.19,3.19,3.18,3.18,3.18,3.18,3.18,3.18,3.18,3.18,3.17,3.17,3.16,3.151,3.151,3.141,3.122,3.122,3.112,3.103,3.103,3.084,3.075,3.075,3.066,3.057,3.057,3.057,3.048,3.048,3.048,3.039,3.03,3.03,3.021,3.012,3.012,3.003,2.977,2.977,2.96,2.943,2.926,2.926,2.901,2.877,2.877,2.853,2.829,2.829,2.814,2.783,2.783,2.754,2.732,2.732,2.703,2.675,2.675,2.654,2.627,2.627,2.607,2.587,2.587,2.574,2.555,2.555,2.549,2.542,2.542,2.53,2.524,2.524,2.511,2.499,2.487,2.487,2.481,2.469,2.469,2.463,2.451,2.451,2.451,2.445,2.445,2.44,2.44,2.44,2.434,2.428,2.428,2.428,2.422,2.417,2.417,2.411,2.411,2.411,2.405,2.394,2.394,2.389,2.377,2.377,2.367,2.35,2.35,2.334,2.318,2.318,2.298,2.277,2.277,2.257,2.238,2.218,2.218,2.204,2.185,2.185,2.171,2.162,2.162,2.153,2.149,2.149,2.14,2.135,2.135,2.131,2.126,2.126,2.126,2.122,2.122,2.122,2.122,2.122,2.122,2.118,2.118,2.118,2.113,2.113,2.113,2.113,2.113,2.113,2.109,2.105,2.105,2.105,2.105,2.1,2.1,2.1,2.1,2.1,2.1,2.1,2.1,2.096,2.092,2.088,2.088,2.079,2.067,2.067,2.05,2.03,2.03,2.006,1.979,1.979,1.956,1.953,1.953,1.949,1.945,1.945,1.945,1.945,1.945,1.945,1.945,1.945,1.945,1.949,1.949,1.949,1.949,1.949,1.949,1.949,1.949,1.949,1.945,1.945,1.945,1.942,1.942,1.938,1.938,1.938,1.938,1.938,1.938,1.938,1.938,1.938,1.942,1.945,1.945,1.949,1.949,1.949,1.949,1.945,1.945,1.945,1.938,1.938,1.931,1.923,1.923,1.909,1.898,1.898,1.888,1.874,1.874,1.861,1.847,1.847,1.837,1.828,1.828,1.815,1.808,1.802,1.802,1.796,1.792,1.792,1.786,1.783,1.783,1.78,1.78,1.78,1.78,1.783,1.786,1.786,1.786,1.786,1.786,1.78,1.774,1.774,1.765,1.753,1.753,1.738,1.723
0.912,0.912,0.912,0.912,0.912,0.911,0.911,0.912,0.912,0.912,0.913,0.913,0.912,0.911,0.911,0.911,0.911,0.911,0.911,0.911,0.911,0.911,0.911,0.911,0.912,0.912,0,0,0,0,0,0,0,0,0,0.989,0.989,0.992,0.992,0.994,0.996,0.996,0.997,0.999,0.999,0.999,1,1,1,1.001,1.001,1.001,1.002,1.002,1.002,1.005,1.003,1.003,1.003,1.007,1.007,1.007,1.009,1.012,1.016,1.015,1.015,1.016,1.016,1.016,1.016,1.016,1.016,1.018,1.018,1.018,0,0,0,1.018,1.018,1.018,1.02,1.022,1.022,1.016,1.015,1.015,1.015,1.015,1.015,1.014,1.014,1.014,1.014,1.014,1.015,1.015,1.015,1.016,1.019,1.019,1.02,1.021,1.021,1.022,1.024,1.024,0,0,0,0,0,0,0,0,0,0,0,0,0,0,0,0,0,0,0,0,0,0,0,1.544,1.533,1.533,1.528,1.528,1.531,1.531,0,0,0,0,0,0,0,0,1.371,1.371,1.355,1.346,1.346,1.336,1.336,1.336,1.329,1.329,1.329,1.329,1.329,1.329,1.327,1.327,1.327,1.327,1.327,1.329,1.33,1.329,1.329,1.329,1.329,1.327,1.327,1.325,1.32,1.32,1.315,1.308,1.308,1.302,1.295,1.295,1.289,1.282,1.282,1.276,1.271,1.271,1.266,1.263,1.26,1.26,1.259,1.257,1.257,1.254,1.249,1.249,1.245,1.24,1.24,1.237,1.234,1.234,1.23,1.229,1.229,1.224,1.223,1.223,1.221,1.218,1.217,1.217,1.214,1.208,1.208,1.204,1.203,1.203,1.19,1.179,1.179,1.174,1.167,1.167,1.157,1.157,1.144,1.13,1.13,1.13,1.146,0,0,0,0,0,0,1.026,1.026,1.027,1.026,1.026,1.026,1.025,1.024,1.024,1.024,1.024,1.024,1.024,1.024,1.025,1.026,1.026,1.028,1.031,1.031,1.032,1.035,1.035,1.037,1.038,1.038,1.037,1.036,1.036,1.034,1.031,1.031,1.03,1.027,1.027,1.025,1.024,1.024,1.023,1.022,1.022,1.022,1.021,1.02,1.02,1.019,1.019,1.019,1.017,1.016,1.016,1.015,1.015,1.015,1.015,1.016,1.017,1.018,1.018,1.02,1.022,1.022,1.024,1.025,1.027,1.027,1.027,1.027,1.026,1.026,1.026,1.026,1.026,1.026,1.026,1.026,1.025,1.025,1.024,1.024,1.024,1.024,1.023,1.023,1.022,1.021,1.021,1.021,1.021,1.021,3.776,3.762,3.762,3.735,3.708,3.708,3.681,3.655,3.655,3.629,3.591,3.591,3.566,3.554,3.542,3.542,3.542,3.542,3.554,3.554,3.554,3.554,3.554,3.542,3.542,3.517,3.517,3.505,3.505,3.493,3.47,3.47,3.447,3.424,3.424,3.401,3.401,3.401,3.379,3.356,3.356,3.335,3.313,3.313,3.292,3.271,3.261,3.261,3.24,3.23,3.23,3.21,3.2,3.2,3.2,3.19,3.19,3.19,3.18,3.18,3.18,3.18,3.18,3.19,3.19,3.18,3.18,3.18,3.18,3.18,3.18,3.18,3.18,3.18,3.18,3.17,3.17,3.16,3.151,3.151,3.141,3.122,3.122,3.112,3.103,3.103,3.084,3.075,3.075,3.066,3.057,3.048,3.048,3.048,3.039,3.039,3.039,3.03,3.03,3.021,3.012,3.012,2.994,2.977,2.977,2.951,2.934,2.926,2.918,2.893,2.869,2.869,2.853,2.822,2.822,2.806,2.776,2.776,2.746,2.717,2.717,2.689,2.668,2.668,2.64,2.613,2.613,2.594,2.574,2.574,2.561,2.549,2.549,2.542,2.536,2.536,2.53,2.517,2.517,2.511,2.499,2.487,2.487,2.475,2.469,2.469,2.463,2.451,2.451,2.445,2.44,2.44,2.44,2.434,2.434,2.434,2.428,2.422,2.422,2.417,2.411,2.411,2.411,2.405,2.405,2.4,2.389,2.389,2.383,2.372,2.372,2.356,2.345,2.345,2.329,2.303,2.303,2.282,2.262,2.262,2.243,2.228,2.218,2.209,2.195,2.181,2.181,2.167,2.162,2.162,2.153,2.149,2.149,2.14,2.135,2.135,2.131,2.126,2.126,2.126,2.122,2.122,2.122,2.122,2.122,2.122,2.118,2.118,2.118,2.113,2.113,2.113,2.113,2.113,2.113,2.109,2.105,2.105,2.105,2.1,2.1,2.1,2.096,2.096,2.096,2.096,2.092,2.092,2.092,2.088,2.083,2.083,2.075,2.062,2.062,2.046,2.03,2.03,2.006,1.979,1.979,1.956,1.953,1.953,1.949,1.945,1.945,1.945,1.945,1.945,1.945,1.945,1.945,1.945,1.949,1.949,1.949,1.949,1.949,1.949,1.949,1.949,1.949,1.945,1.945,1.945,1.942,1.942,1.938,1.938,1.938,1.938,1.938,1.938,1.938,1.938,1.938,1.942,1.945,1.945,1.949,1.949,1.949,1.945,1.945,1.945,1.942,1.934,1.934,1.927,1.916,1.916,1.906,1.895,1.895,1.885,1.874,1.874,1.861,1.847,1.847,1.837,1.828,1.828,1.815,1.808,1.802,1.802,1.796,1.792,1.792,1.786,1.783,1.783,1.78,1.78,1.78,1.78,1.783,1.783,1.783,1.783,1.783,1.783,1.78,1.774,1.774,1.765,1.75,1.75,1.738,1.72
0.911,0.912,0.912,0.912,0.912,0.912,0.912,0.913,0.913,0.913,0.913,0.914,0.914,0.913,0.913,0.913,0.913,0.913,0.913,0.913,0.913,0.913,0.913,0.913,0,0,0,0,0,0,0,0,0,0,0,0,0,0,0.998,0.998,1,1,1.002,1.003,1.004,1.004,1.004,1.005,1.005,1.006,1.006,1.006,1.005,1.005,1.005,1.005,1.005,1.006,1.006,1.007,1.009,1.009,1.01,1.013,1.015,1.015,1.015,1.016,1.016,1.015,1.015,1.015,1.015,1.016,1.016,1.016,1.016,0,0,1.018,1.018,1.018,1.02,1.022,1.022,1.021,1.021,1.021,1.021,1.02,1.02,1.019,1.018,1.018,1.018,1.017,1.017,1.016,1.016,1.017,1.019,1.019,1.02,1.02,1.02,1.021,1.023,1.023,0,0,0,0,0,0,0,0,0,0,0,0,0,0,0,0,0,0,0,0,0,0,0,0,1.542,1.542,1.542,1.531,1.531,1.531,0,0,0,0,0,0,0,0,1.371,1.371,1.355,1.346,1.346,1.336,1.336,0,1.324,1.324,1.324,1.324,1.325,1.327,1.325,1.325,1.327,1.327,1.329,1.33,1.332,1.33,1.33,1.33,1.33,1.327,1.327,1.325,1.32,1.32,1.315,1.308,1.308,1.302,1.295,1.295,1.289,1.282,1.282,1.276,1.271,1.271,1.268,1.263,1.26,1.26,1.259,1.257,1.257,1.253,1.248,1.248,1.245,1.24,1.24,1.237,1.233,1.233,1.23,1.227,1.227,1.224,1.223,1.223,1.22,1.218,1.217,1.217,1.214,1.211,1.211,1.208,1.203,1.203,1.198,1.191,1.191,1.187,1.185,1.185,1.179,1.171,1.171,1.163,1.146,1.146,1.146,0,0,0,0,0,0,1.026,1.026,1.024,1.024,1.024,1.024,1.024,1.023,1.023,1.023,1.024,1.024,1.024,1.024,1.025,1.026,1.026,1.028,1.03,1.03,1.032,1.035,1.035,1.037,1.038,1.038,1.038,1.036,1.036,1.035,1.032,1.032,1.03,1.028,1.028,1.026,1.024,1.024,1.024,1.023,1.022,1.022,1.022,1.021,1.021,1.02,1.02,1.02,1.018,1.017,1.017,1.016,1.016,1.016,1.016,1.016,1.017,1.018,1.018,1.019,1.021,1.021,1.023,1.024,1.025,1.025,1.025,1.025,1.025,1.025,1.025,1.025,1.025,1.025,1.025,1.025,1.024,1.024,1.024,1.024,1.024,1.024,1.024,1.024,1.023,1.023,1.023,1.023,3.776,3.776,3.762,3.762,3.762,3.735,3.721,3.721,3.694,3.668,3.668,3.629,3.604,3.604,3.579,3.566,3.566,3.566,3.554,3.554,3.566,3.566,3.566,3.566,3.566,3.554,3.554,3.542,3.529,3.517,3.517,3.505,3.482,3.482,3.458,3.435,3.435,3.412,3.401,3.401,3.379,3.356,3.356,3.335,3.324,3.324,3.302,3.281,3.261,3.261,3.25,3.23,3.23,3.22,3.21,3.21,3.2,3.19,3.19,3.19,3.19,3.19,3.19,3.19,3.19,3.19,3.19,3.18,3.18,3.18,3.18,3.18,3.18,3.18,3.18,3.18,3.18,3.17,3.17,3.17,3.16,3.16,3.141,3.122,3.122,3.112,3.094,3.094,3.084,3.075,3.075,3.057,3.048,3.048,3.048,3.048,3.039,3.039,3.03,3.021,3.021,3.012,3.003,3.003,2.986,2.968,2.968,2.951,2.934,2.934,2.918,2.893,2.869,2.869,2.853,2.822,2.822,2.799,2.768,2.768,2.739,2.71,2.71,2.682,2.654,2.654,2.627,2.607,2.607,2.587,2.568,2.568,2.555,2.542,2.542,2.542,2.53,2.53,2.524,2.517,2.517,2.505,2.493,2.487,2.487,2.475,2.469,2.469,2.457,2.451,2.451,2.44,2.434,2.434,2.434,2.428,2.428,2.428,2.422,2.417,2.417,2.417,2.411,2.411,2.405,2.4,2.4,2.394,2.383,2.383,2.372,2.361,2.361,2.35,2.334,2.334,2.313,2.293,2.293,2.272,2.252,2.252,2.233,2.218,2.218,2.199,2.19,2.181,2.176,2.167,2.158,2.158,2.158,2.149,2.149,2.144,2.14,2.14,2.135,2.135,2.135,2.135,2.131,2.131,2.126,2.126,2.126,2.126,2.126,2.122,2.122,2.118,2.118,2.118,2.113,2.113,2.113,2.113,2.109,2.105,2.105,2.1,2.1,2.1,2.096,2.096,2.096,2.096,2.092,2.092,2.088,2.083,2.079,2.079,2.071,2.062,2.062,2.046,2.03,2.03,2.01,1.983,1.983,1.968,1.96,1.96,1.956,1.956,1.956,1.956,1.956,1.956,1.956,1.953,1.953,1.953,1.956,1.956,1.956,1.956,1.96,1.96,1.956,1.956,1.956,1.956,1.953,1.953,1.949,1.949,1.945,1.945,1.945,1.945,1.945,1.945,1.945,1.945,1.945,1.945,1.945,1.945,1.945,1.945,1.945,1.945,1.938,1.938,1.934,1.927,1.927,1.92,1.913,1.913,1.902,1.891,1.891,1.881,1.871,1.871,1.861,1.851,1.851,1.837,1.828,1.828,1.821,1.811,1.805,1.805,1.799,1.792,1.792,1.786,1.78,1.78,1.777,1.777,1.777,1.777,1.777,1.777,1.777,1.777,1.777,1.777,1.774,1.768,1.768,1.762,1.747,1.747,1.732,1.718
0.911,0.912,0.912,0.912,0.912,0.913,0.913,0.913,0.913,0.913,0.914,0.915,0.914,0.914,0.914,0.913,0.913,0.914,0.915,0.915,0.915,0.915,0.915,0,0,0,0,0,0,0,0,0,0,0,0,0,0,0,1.003,1.003,1.004,1.004,1.006,1.006,1.006,1.006,1.007,1.008,1.008,1.009,1.009,1.008,1.008,1.008,1.008,1.008,1.008,1.008,1.008,1.009,1.01,1.01,1.012,1.013,1.015,1.015,1.015,1.016,1.016,1.015,1.015,1.015,1.015,1.016,1.016,1.016,1.016,0,0,0,0,1.02,1.02,1.022,1.022,1.023,1.023,0,1.022,1.021,1.021,1.02,1.019,1.019,1.018,1.017,1.017,1.016,1.016,1.017,1.019,1.019,1.02,1.02,1.02,1.021,1.023,1.023,0,0,0,0,0,0,0,0,0,0,0,0,0,0,0,0,0,0,0,0,0,0,0,0,0,0,0,0,0,0,0,0,0,0,0,0,0,0,0,0,0,0,0,0,0,0,1.324,1.324,1.324,1.324,1.325,1.327,1.325,1.325,1.327,1.327,1.329,1.33,1.332,1.33,1.33,1.33,1.33,1.329,1.329,1.325,1.32,1.32,1.315,1.308,1.308,1.302,1.295,1.295,1.289,1.284,1.284,1.277,1.271,1.271,1.268,1.263,1.26,1.26,1.259,1.257,1.257,1.253,1.248,1.248,1.245,1.24,1.24,1.237,1.233,1.233,1.23,1.227,1.227,1.226,1.223,1.223,1.22,1.22,1.218,1.218,1.217,1.214,1.214,1.213,1.21,1.21,1.205,1.2,1.2,1.197,1.197,0,0,1.189,1.189,1.185,1.168,1.168,1.168,0,0,0,0,0,0,0,0,1.024,1.024,1.024,1.024,1.024,1.023,1.023,1.023,1.024,1.024,1.024,1.024,1.025,1.027,1.027,1.028,1.03,1.03,1.033,1.035,1.035,1.037,1.038,1.038,1.038,1.037,1.037,1.036,1.034,1.034,1.032,1.029,1.029,1.027,1.026,1.026,1.025,1.024,1.023,1.023,1.022,1.022,1.022,1.021,1.02,1.02,1.018,1.017,1.017,1.017,1.016,1.016,1.016,1.016,1.017,1.018,1.018,1.019,1.021,1.021,1.023,1.024,1.025,1.025,1.025,1.025,1.025,1.025,1.025,1.025,1.025,1.025,1.025,1.025,1.024,1.024,1.024,1.024,1.024,1.024,1.024,1.025,1.025,1.024,1.024,1.024,3.776,3.776,3.762,3.762,3.762,3.735,3.721,3.721,3.694,3.668,3.668,3.642,3.604,3.604,3.591,3.579,3.566,3.566,3.566,3.566,3.566,3.566,3.579,3.579,3.579,3.566,3.566,3.554,3.542,3.529,3.529,3.517,3.493,3.493,3.47,3.447,3.447,3.424,3.412,3.412,3.39,3.356,3.356,3.345,3.324,3.324,3.302,3.281,3.261,3.261,3.25,3.24,3.24,3.22,3.22,3.22,3.21,3.2,3.2,3.2,3.19,3.19,3.19,3.19,3.19,3.19,3.19,3.19,3.19,3.18,3.18,3.18,3.18,3.19,3.19,3.18,3.18,3.18,3.18,3.17,3.16,3.16,3.141,3.122,3.122,3.112,3.094,3.094,3.084,3.075,3.075,3.057,3.048,3.048,3.048,3.048,3.039,3.039,3.03,3.021,3.021,3.012,3.003,3.003,2.986,2.968,2.968,2.951,2.934,2.934,2.918,2.893,2.869,2.869,2.853,2.822,2.822,2.799,2.768,2.768,2.739,2.71,2.71,2.682,2.654,2.654,2.627,2.607,2.607,2.587,2.568,2.568,2.555,2.542,2.542,2.542,2.53,2.53,2.524,2.517,2.517,2.505,2.493,2.487,2.487,2.475,2.469,2.469,2.457,2.451,2.451,2.44,2.434,2.434,2.434,2.428,2.428,2.428,2.422,2.417,2.417,2.417,2.411,2.411,2.405,2.4,2.4,2.394,2.383,2.383,2.372,2.361,2.361,2.35,2.334,2.334,2.313,2.293,2.293,2.272,2.252,2.252,2.233,2.218,2.218,2.199,2.19,2.19,2.176,2.167,2.158,2.158,2.158,2.153,2.153,2.149,2.144,2.144,2.144,2.144,2.144,2.14,2.14,2.135,2.135,2.135,2.135,2.135,2.131,2.131,2.131,2.126,2.122,2.122,2.118,2.118,2.118,2.113,2.109,2.105,2.105,2.1,2.1,2.1,2.096,2.096,2.096,2.096,2.092,2.092,2.088,2.083,2.079,2.079,2.071,2.062,2.062,2.046,2.034,2.034,2.014,1.994,1.994,1.979,1.971,1.971,1.968,1.968,1.968,1.964,1.964,1.968,1.964,1.964,1.964,1.964,1.968,1.968,1.968,1.968,1.968,1.968,1.968,1.968,1.968,1.968,1.964,1.964,1.964,1.96,1.956,1.956,1.953,1.949,1.949,1.949,1.949,1.949,1.949,1.949,1.949,1.949,1.945,1.945,1.945,1.945,1.938,1.938,1.934,1.927,1.927,1.92,1.913,1.913,1.902,1.891,1.891,1.881,1.871,1.871,1.861,1.851,1.851,1.841,1.831,1.831,1.821,1.815,1.808,1.808,1.802,1.792,1.792,1.786,1.78,1.78,1.777,1.777,1.777,1.777,1.777,1.777,1.777,1.777,1.777,1.777,1.774,1.768,1.768,1.762,1.747,1.747,1.732,1.718
0.911,0.912,0.912,0.912,0.912,0.912,0.912,0.912,0.913,0.913,0.914,0.915,0.914,0.914,0.914,0.913,0.913,0.914,0.915,0.915,0.915,0.915,0.915,0,0,0,0,0,0,0,0,0,0,1.01,1.01,1.008,1.008,0,1.003,1.003,1.004,1.004,1.006,1.006,1.006,1.006,1.007,1.008,1.008,1.009,1.009,1.008,1.008,1.008,1.008,1.008,1.008,1.008,1.008,1.009,1.01,1.01,1.012,1.013,1.015,1.015,1.015,1.016,1.016,1.015,1.015,1.015,1.015,1.016,1.016,1.016,1.016,0,1.018,1.018,1.019,1.019,1.02,1.022,1.022,1.023,1.023,1.023,1.022,1.021,1.021,1.02,1.019,1.019,1.018,1.017,1.017,1.016,1.016,1.017,1.018,1.018,1.018,1.018,1.018,1.02,1.021,1.021,0,0,0,0,0,0,0,0,0,0,0,0,0,0,0,0,0,0,0,0,0,0,0,0,0,0,0,0,0,0,0,0,0,0,0,0,0,0,0,0,0,0,0,0,0,0,1.315,1.315,1.318,1.318,1.322,1.324,1.324,1.325,1.327,1.327,1.329,1.33,1.332,1.33,1.33,1.33,1.329,1.327,1.327,1.324,1.318,1.318,1.313,1.307,1.307,1.3,1.294,1.294,1.287,1.282,1.282,1.277,1.271,1.271,1.268,1.263,1.26,1.26,1.259,1.257,1.257,1.253,1.248,1.248,1.245,1.24,1.24,1.237,1.233,1.233,1.23,1.227,1.227,1.226,1.223,1.223,1.22,1.22,1.218,1.218,1.217,1.214,1.214,1.213,1.21,1.21,1.205,1.2,1.2,1.197,1.197,0,0,1.189,1.189,1.185,1.168,1.168,1.168,0,0,0,0,0,0,0,0,1.023,1.023,1.023,1.023,1.023,1.023,1.023,1.023,1.022,1.022,1.022,1.024,1.025,1.026,1.026,1.028,1.03,1.03,1.033,1.034,1.034,1.036,1.037,1.038,1.038,1.037,1.037,1.036,1.034,1.034,1.032,1.029,1.029,1.027,1.026,1.026,1.025,1.024,1.023,1.023,1.022,1.022,1.022,1.021,1.02,1.02,1.018,1.017,1.017,1.017,1.016,1.016,1.016,1.016,1.017,1.018,1.018,1.019,1.02,1.02,1.022,1.022,1.022,1.023,1.024,1.024,1.024,1.024,1.024,1.024,1.024,1.024,1.024,1.024,1.024,1.024,1.024,1.024,1.024,1.024,1.024,1.025,1.025,1.024,1.024,1.024,3.762,3.762,3.748,3.748,3.748,3.735,3.721,3.721,3.694,3.668,3.668,3.642,3.604,3.604,3.591,3.579,3.566,3.566,3.566,3.566,3.566,3.566,3.566,3.566,3.566,3.566,3.566,3.554,3.542,3.529,3.529,3.517,3.493,3.493,3.47,3.447,3.447,3.424,3.412,3.412,3.39,3.356,3.356,3.345,3.324,3.324,3.302,3.281,3.261,3.261,3.25,3.24,3.24,3.22,3.22,3.22,3.21,3.2,3.2,3.2,3.19,3.19,3.19,3.19,3.19,3.19,3.19,3.19,3.19,3.18,3.18,3.18,3.18,3.19,3.19,3.18,3.18,3.18,3.18,3.17,3.16,3.16,3.141,3.122,3.122,3.103,3.094,3.094,3.084,3.066,3.066,3.057,3.048,3.039,3.039,3.039,3.03,3.03,3.03,3.012,3.012,3.003,2.994,2.994,2.986,2.968,2.968,2.951,2.934,2.934,2.918,2.893,2.869,2.869,2.853,2.822,2.822,2.799,2.768,2.768,2.739,2.71,2.71,2.682,2.654,2.654,2.627,2.6,2.6,2.581,2.561,2.561,2.555,2.542,2.542,2.536,2.53,2.53,2.517,2.511,2.511,2.505,2.493,2.481,2.481,2.469,2.463,2.463,2.457,2.445,2.445,2.44,2.434,2.434,2.428,2.422,2.422,2.422,2.417,2.417,2.411,2.411,2.405,2.405,2.4,2.394,2.394,2.389,2.377,2.377,2.367,2.356,2.356,2.34,2.318,2.318,2.303,2.277,2.277,2.257,2.238,2.238,2.218,2.204,2.204,2.19,2.181,2.181,2.171,2.162,2.158,2.158,2.158,2.153,2.153,2.149,2.144,2.144,2.144,2.144,2.144,2.14,2.14,2.135,2.135,2.135,2.135,2.135,2.131,2.131,2.131,2.126,2.122,2.122,2.118,2.118,2.118,2.113,2.109,2.105,2.105,2.1,2.1,2.1,2.096,2.096,2.096,2.096,2.092,2.092,2.088,2.083,2.079,2.079,2.067,2.058,2.058,2.046,2.03,2.03,2.014,1.994,1.994,1.979,1.971,1.971,1.968,1.968,1.968,1.964,1.964,1.968,1.964,1.964,1.964,1.964,1.968,1.968,1.968,1.968,1.968,1.968,1.968,1.968,1.968,1.968,1.964,1.964,1.964,1.96,1.956,1.956,1.953,1.949,1.949,1.949,1.949,1.949,1.949,1.949,1.949,1.949,1.945,1.942,1.942,1.938,1.934,1.934,1.927,1.92,1.92,1.913,1.906,1.906,1.895,1.885,1.885,1.874,1.867,1.867,1.861,1.851,1.851,1.841,1.831,1.831,1.821,1.815,1.808,1.808,1.802,1.792,1.792,1.786,1.78,1.78,1.774,1.774,1.774,1.774,1.774,1.774,1.774,1.774,1.774,1.774,1.771,1.765,1.765,1.759,1.747,1.747,1.729,1.715
0,0,0,0.912,0.912,0.912,0.912,0.912,0.913,0.913,0.914,0.915,0.915,0.915,0.915,0.915,0,0,0,0,0,0,0,0,0,0,0,0,0,0,0,0,0,1.01,1.01,1.008,1.008,0,0,1.009,1.009,1.009,1.009,1.008,1.008,1.008,1.009,1.009,1.009,1.009,1.01,1.009,1.009,1.009,1.009,1.008,1.008,1.009,1.009,1.01,1.011,1.011,1.012,1.013,1.015,1.015,1.016,1.017,1.017,1.016,1.016,1.016,1.017,1.017,1.017,1.017,1.017,1.019,1.018,1.018,1.019,1.019,1.02,1.022,1.022,1.023,1.023,1.023,1.022,1.021,1.021,1.02,1.019,1.019,1.018,1.017,1.017,1.016,1.016,1.016,1.017,1.017,1.018,1.018,1.018,1.018,1.019,1.019,0,0,0,0,0,0,0,0,0,0,0,0,0,0,0,0,0,0,0,0,0,0,0,0,0,0,0,0,0,0,0,0,0,0,0,0,0,0,0,0,0,0,1.221,1.221,1.221,0,1.315,1.315,1.298,1.298,1.313,1.322,1.322,1.325,1.327,1.327,1.329,1.332,1.332,1.33,1.329,1.329,1.327,1.324,1.324,1.32,1.315,1.315,1.31,1.303,1.303,1.297,1.29,1.29,1.285,1.281,1.281,1.276,1.271,1.271,1.268,1.263,1.262,1.262,1.259,1.257,1.257,1.253,1.249,1.249,1.246,1.242,1.242,1.239,1.234,1.234,1.231,1.229,1.229,1.227,1.224,1.224,1.223,1.221,1.221,1.221,1.22,1.218,1.218,1.217,1.215,1.215,1.213,1.208,1.208,1.208,1.215,1.215,1.215,1.201,1.2,1.2,1.2,0,0,0,0,0,0,0,0,0,0,1.023,1.023,1.023,1.023,1.023,1.023,1.023,1.023,1.022,1.022,1.022,1.024,1.025,1.026,1.026,1.028,1.03,1.03,1.032,1.034,1.034,1.036,1.037,1.038,1.038,1.04,1.04,1.037,1.035,1.035,1.033,1.031,1.031,1.029,1.028,1.028,1.027,1.025,1.025,1.025,1.024,1.023,1.023,1.022,1.021,1.021,1.02,1.018,1.018,1.018,1.017,1.017,1.017,1.017,1.017,1.018,1.018,1.019,1.019,1.019,1.021,1.021,1.021,1.021,1.021,1.021,1.021,1.021,1.021,1.021,1.022,1.022,1.022,1.022,1.022,1.022,1.022,1.022,1.025,1.024,1.024,1.025,1.025,1.025,1.025,1.025,3.735,3.735,3.735,3.721,3.721,3.721,3.708,3.708,3.694,3.668,3.668,3.655,3.616,3.604,3.591,3.579,3.579,3.579,3.566,3.566,3.579,3.579,3.566,3.566,3.566,3.566,3.566,3.554,3.542,3.529,3.529,3.517,3.493,3.493,3.47,3.447,3.447,3.424,3.412,3.412,3.39,3.367,3.367,3.345,3.324,3.324,3.302,3.281,3.271,3.271,3.25,3.24,3.24,3.23,3.22,3.22,3.21,3.21,3.21,3.21,3.2,3.2,3.19,3.19,3.19,3.19,3.19,3.19,3.19,3.19,3.19,3.19,3.19,3.19,3.19,3.19,3.19,3.18,3.18,3.17,3.16,3.16,3.141,3.122,3.122,3.103,3.084,3.084,3.075,3.066,3.066,3.057,3.048,3.039,3.039,3.039,3.03,3.03,3.021,3.012,3.012,3.003,2.994,2.994,2.977,2.968,2.968,2.951,2.934,2.934,2.918,2.893,2.877,2.877,2.853,2.822,2.822,2.799,2.768,2.768,2.732,2.703,2.703,2.675,2.647,2.647,2.62,2.6,2.6,2.581,2.561,2.561,2.549,2.542,2.542,2.536,2.524,2.524,2.517,2.505,2.505,2.499,2.487,2.481,2.475,2.469,2.463,2.463,2.451,2.44,2.44,2.434,2.428,2.428,2.422,2.422,2.422,2.417,2.411,2.411,2.411,2.405,2.4,2.4,2.4,2.389,2.389,2.383,2.372,2.372,2.361,2.345,2.345,2.324,2.308,2.308,2.287,2.267,2.267,2.243,2.223,2.223,2.209,2.195,2.195,2.185,2.176,2.176,2.167,2.162,2.162,2.162,2.158,2.153,2.153,2.153,2.149,2.149,2.149,2.144,2.144,2.144,2.144,2.144,2.144,2.144,2.14,2.14,2.14,2.135,2.135,2.131,2.126,2.126,2.126,2.122,2.122,2.118,2.113,2.109,2.109,2.105,2.105,2.105,2.1,2.096,2.096,2.096,2.092,2.092,2.088,2.083,2.079,2.079,2.067,2.058,2.058,2.046,2.03,2.03,2.018,2.006,2.006,1.99,1.987,1.987,1.979,1.979,1.979,1.975,1.975,1.979,1.975,1.975,1.975,1.979,1.979,1.979,1.983,1.983,1.983,1.983,1.983,1.979,1.979,1.979,1.975,1.975,1.975,1.971,1.968,1.968,1.964,1.96,1.96,1.956,1.953,1.953,1.953,1.949,1.949,1.945,1.938,1.934,1.934,1.931,1.923,1.923,1.916,1.909,1.909,1.902,1.895,1.895,1.885,1.878,1.878,1.871,1.864,1.864,1.857,1.851,1.851,1.841,1.831,1.831,1.824,1.815,1.808,1.808,1.802,1.792,1.792,1.786,1.777,1.777,1.771,1.768,1.768,1.768,1.771,1.771,1.768,1.768,1.768,1.765,1.765,1.762,1.762,1.756,1.741,1.741,1.729,1.715
0,0,0,0,0.912,0.912,0.912,0.912,0.913,0.913,0.915,0.916,0.916,0.919,0.921,0,0,0,0,0,0,0,0,0,0,0,0,0,0,0,0,0,0,0,0,0,0,0,0,1.015,1.014,1.014,1.013,1.012,1.012,1.012,1.011,1.011,1.011,1.01,1.01,1.009,1.009,1.009,1.009,1.009,1.009,1.009,1.009,1.01,1.011,1.011,1.013,1.013,1.016,1.016,1.017,1.017,1.017,1.018,1.018,1.018,1.018,1.018,1.018,1.019,1.019,1.019,1.019,1.019,1.02,1.02,1.022,1.023,1.023,1.024,1.024,1.024,1.022,1.021,1.021,1.021,1.019,1.019,1.018,1.017,1.017,1.016,1.016,1.016,1.017,1.017,1.018,1.018,1.018,1.018,1.019,1.019,0,0,0,0,0,0,0,0,0,0,0,0,0,0,0,0,0,0,0,0,0,0,0,0,0,0,0,0,0,0,0,0,0,0,0,0,0,0,0,0,0,0,1.221,1.221,1.221,0,0,0,1.298,1.298,1.313,1.322,1.322,1.325,1.327,1.327,1.33,1.332,1.332,1.33,1.329,1.329,1.327,1.324,1.324,1.32,1.315,1.315,1.31,1.303,1.303,1.297,1.29,1.29,1.285,1.281,1.281,1.276,1.271,1.271,1.268,1.263,1.262,1.262,1.26,1.259,1.259,1.256,1.253,1.253,1.248,1.243,1.243,1.242,1.239,1.239,1.234,1.233,1.233,1.23,1.229,1.227,1.227,1.226,1.224,1.224,1.224,1.223,1.223,1.221,1.22,1.22,1.22,1.217,1.217,1.217,1.215,1.215,1.215,1.215,1.211,1.211,1.211,0,0,0,0,0,0,0,0,0,0,1.023,1.023,1.024,1.024,1.023,1.023,1.024,1.024,1.024,1.025,1.025,1.025,1.026,1.027,1.027,1.028,1.03,1.03,1.032,1.034,1.034,1.036,1.038,1.041,1.041,1.041,1.041,1.041,1.038,1.038,1.036,1.034,1.034,1.032,1.029,1.028,1.028,1.027,1.026,1.026,1.025,1.024,1.024,1.023,1.022,1.022,1.021,1.02,1.02,1.02,1.019,1.019,1.019,1.019,1.018,1.018,1.018,1.019,1.019,1.019,1.021,1.021,1.021,1.021,1.021,1.021,1.021,1.021,1.021,1.021,1.022,1.022,1.022,1.022,1.022,1.022,1.022,1.022,1.025,1.024,1.024,1.025,1.025,1.025,1.025,1.025,3.735,3.735,3.721,3.721,3.721,3.708,3.694,3.694,3.681,3.668,3.668,3.642,3.616,3.604,3.591,3.591,3.579,3.579,3.566,3.566,3.566,3.566,3.566,3.566,3.554,3.554,3.554,3.542,3.529,3.517,3.517,3.505,3.493,3.493,3.47,3.447,3.447,3.435,3.412,3.412,3.39,3.367,3.367,3.345,3.335,3.335,3.313,3.292,3.271,3.271,3.261,3.25,3.25,3.24,3.23,3.23,3.22,3.22,3.22,3.21,3.21,3.21,3.2,3.2,3.2,3.2,3.2,3.2,3.2,3.19,3.19,3.19,3.19,3.19,3.19,3.19,3.18,3.17,3.17,3.16,3.141,3.141,3.131,3.112,3.112,3.094,3.084,3.084,3.066,3.057,3.057,3.048,3.048,3.039,3.039,3.03,3.03,3.03,3.021,3.012,3.012,3.003,2.994,2.994,2.977,2.968,2.968,2.951,2.934,2.926,2.918,2.901,2.877,2.877,2.861,2.829,2.829,2.806,2.768,2.768,2.732,2.696,2.696,2.668,2.647,2.647,2.62,2.594,2.594,2.574,2.561,2.561,2.549,2.536,2.536,2.53,2.524,2.524,2.511,2.505,2.505,2.493,2.481,2.481,2.475,2.463,2.457,2.457,2.445,2.44,2.44,2.434,2.428,2.428,2.422,2.417,2.417,2.411,2.411,2.411,2.405,2.4,2.394,2.394,2.394,2.383,2.383,2.372,2.361,2.361,2.35,2.334,2.334,2.313,2.293,2.293,2.272,2.252,2.252,2.233,2.214,2.214,2.195,2.185,2.185,2.176,2.171,2.171,2.167,2.162,2.162,2.162,2.158,2.158,2.158,2.158,2.158,2.158,2.153,2.153,2.153,2.153,2.153,2.149,2.149,2.149,2.144,2.144,2.144,2.144,2.144,2.14,2.135,2.135,2.131,2.126,2.126,2.122,2.118,2.113,2.113,2.113,2.109,2.109,2.105,2.1,2.1,2.096,2.092,2.092,2.088,2.083,2.083,2.079,2.071,2.058,2.058,2.046,2.038,2.038,2.026,2.014,2.014,2.002,1.998,1.998,1.99,1.99,1.99,1.99,1.99,1.99,1.987,1.987,1.987,1.99,1.99,1.99,1.994,1.994,1.994,1.994,1.994,1.994,1.994,1.99,1.99,1.987,1.987,1.983,1.975,1.975,1.971,1.968,1.968,1.964,1.96,1.96,1.953,1.945,1.945,1.938,1.934,1.927,1.927,1.92,1.913,1.913,1.906,1.898,1.898,1.891,1.881,1.881,1.878,1.867,1.867,1.864,1.857,1.857,1.851,1.847,1.847,1.841,1.831,1.831,1.824,1.815,1.808,1.808,1.802,1.792,1.792,1.783,1.777,1.777,1.771,1.765,1.765,1.765,1.765,1.765,1.765,1.762,1.762,1.759,1.759,1.756,1.756,1.75,1.741,1.741,1.729,1.715
0,0,0,0,0.912,0.912,0.912,0.912,0.913,0.913,0.915,0.916,0.916,0.919,0.921,0,0,0,0,0,0,0,0,0,0,0,0,0,0,0,0,0,0,0,0,1.025,1.025,0,0,1.015,1.014,1.014,1.013,1.012,1.012,1.012,1.011,1.011,1.011,1.01,1.01,1.009,1.009,1.009,1.009,1.009,1.009,1.009,1.009,1.01,1.011,1.011,1.013,1.013,1.016,1.016,1.017,1.017,1.017,1.018,1.018,1.018,1.018,1.018,1.018,1.019,1.019,1.019,1.019,1.019,1.02,1.02,1.022,1.023,1.023,1.024,1.024,1.024,1.022,1.021,1.021,1.021,1.019,1.019,1.018,1.017,1.017,1.016,1.016,1.016,1.017,1.017,1.018,1.018,1.018,1.018,1.019,1.019,0,0,0,0,0,0,0,0,0,0,0,0,0,0,0,0,0,0,0,0,0,0,0,0,0,0,0,0,0,0,0,0,0,0,0,0,0,0,0,0,0,0,1.221,1.221,1.221,0,0,0,1.273,1.273,1.313,1.322,1.322,1.325,1.327,1.327,1.33,1.332,1.332,1.327,1.325,1.325,1.32,1.318,1.318,1.313,1.308,1.308,1.303,1.298,1.298,1.292,1.287,1.287,1.282,1.277,1.277,1.274,1.27,1.27,1.268,1.263,1.262,1.262,1.26,1.259,1.259,1.256,1.253,1.253,1.248,1.243,1.243,1.242,1.239,1.239,1.234,1.233,1.233,1.23,1.229,1.227,1.227,1.226,1.224,1.224,1.224,1.223,1.223,1.221,1.22,1.22,1.22,1.217,1.217,1.217,1.215,1.215,1.215,1.215,1.211,1.211,1.211,1.226,0,0,0,0,0,0,0,0,0,1.023,1.023,1.024,1.024,1.023,1.023,1.024,1.024,1.024,1.025,1.025,1.025,1.026,1.027,1.027,1.028,1.03,1.03,1.032,1.034,1.034,1.036,1.038,1.041,1.041,1.041,1.041,1.041,1.038,1.038,1.036,1.034,1.034,1.032,1.029,1.028,1.028,1.027,1.026,1.026,1.025,1.024,1.024,1.023,1.022,1.022,1.021,1.02,1.02,1.02,1.019,1.019,1.019,1.019,1.018,1.018,1.018,1.018,1.018,1.018,1.019,1.019,1.019,1.019,1.018,1.018,1.018,1.02,1.02,1.02,1.02,1.02,1.02,1.02,1.021,1.021,1.021,1.022,1.024,1.024,1.024,1.024,1.024,1.025,1.025,1.025,3.735,3.735,3.721,3.721,3.721,3.708,3.694,3.694,3.681,3.668,3.668,3.642,3.616,3.616,3.591,3.591,3.579,3.579,3.566,3.566,3.566,3.566,3.566,3.566,3.554,3.554,3.554,3.542,3.529,3.517,3.517,3.505,3.493,3.493,3.47,3.447,3.447,3.435,3.412,3.412,3.39,3.379,3.379,3.356,3.335,3.335,3.313,3.292,3.281,3.281,3.271,3.261,3.261,3.25,3.24,3.24,3.23,3.23,3.23,3.22,3.22,3.22,3.21,3.21,3.2,3.2,3.2,3.2,3.2,3.2,3.2,3.2,3.2,3.19,3.19,3.19,3.18,3.17,3.17,3.16,3.141,3.141,3.131,3.112,3.112,3.094,3.084,3.084,3.066,3.057,3.057,3.048,3.048,3.039,3.039,3.03,3.03,3.03,3.021,3.012,3.012,3.003,2.994,2.994,2.986,2.968,2.968,2.96,2.943,2.926,2.926,2.91,2.893,2.893,2.869,2.837,2.837,2.806,2.768,2.768,2.739,2.696,2.696,2.668,2.647,2.647,2.62,2.594,2.594,2.574,2.561,2.561,2.549,2.536,2.536,2.53,2.524,2.524,2.511,2.505,2.505,2.493,2.481,2.481,2.475,2.463,2.457,2.457,2.445,2.44,2.44,2.434,2.428,2.428,2.422,2.417,2.417,2.411,2.411,2.411,2.405,2.4,2.394,2.394,2.394,2.383,2.383,2.372,2.361,2.361,2.35,2.334,2.334,2.313,2.293,2.293,2.272,2.252,2.252,2.233,2.214,2.214,2.195,2.185,2.185,2.176,2.171,2.171,2.167,2.162,2.162,2.162,2.162,2.162,2.162,2.162,2.162,2.162,2.158,2.158,2.158,2.158,2.158,2.158,2.158,2.158,2.153,2.153,2.149,2.149,2.149,2.144,2.14,2.14,2.135,2.131,2.131,2.131,2.126,2.122,2.122,2.118,2.113,2.113,2.109,2.105,2.105,2.1,2.096,2.096,2.092,2.088,2.088,2.079,2.071,2.062,2.062,2.054,2.046,2.046,2.03,2.022,2.022,2.014,2.006,2.006,2.002,1.998,1.998,1.998,1.998,1.998,1.998,1.998,1.998,2.002,2.002,2.006,2.006,2.006,2.006,2.01,2.01,2.006,2.006,2.006,2.002,1.998,1.998,1.994,1.987,1.987,1.979,1.971,1.971,1.964,1.96,1.96,1.953,1.945,1.945,1.938,1.934,1.927,1.927,1.92,1.913,1.913,1.906,1.898,1.898,1.891,1.881,1.881,1.878,1.867,1.867,1.864,1.857,1.857,1.851,1.847,1.847,1.841,1.831,1.831,1.824,1.818,1.808,1.808,1.802,1.792,1.792,1.783,1.777,1.777,1.771,1.765,1.765,1.765,1.765,1.765,1.765,1.762,1.762,1.759,1.759,1.756,1.756,1.75,1.741,1.741,1.729,1.712
0.73,0.733,0.734,0.734,0.734,0.734,0.734,0.734,0.734,0.913,0.915,0.916,0.916,0.919,0.925,0,0,0,0,0,0,0,0,0,0,0,0,0,0,0,0,0,0,1.031,1.028,1.025,1.025,1.027,0,1.02,1.019,1.019,1.017,1.015,1.015,1.015,1.014,1.014,1.014,1.012,1.012,1.011,1.011,1.011,1.011,1.011,1.011,1.011,1.011,1.011,1.013,1.013,1.014,1.015,1.017,1.017,1.018,1.019,1.019,1.02,1.02,1.02,1.02,1.02,1.021,1.021,1.021,1.021,1.021,1.021,1.022,1.022,1.023,1.026,1.026,1.025,1.025,1.025,1.025,1.024,1.024,1.022,1.021,1.021,1.02,1.018,1.018,1.018,1.018,1.018,1.019,1.019,1.019,1.019,1.019,1.02,1.021,1.021,0,0,0,0,0,0,0,0,0,0,0,0,0,0,0,0,0,0,0,0,0,0,0,0,0,0,0,0,0,0,0,0,0,0,0,0,0,0,0,0,0,1.119,1.119,0,0,0,0,0,1.273,1.273,0,0,0,0,0,1.334,1.334,1.332,1.332,1.325,1.32,1.32,1.317,1.312,1.312,1.308,1.302,1.302,1.298,1.294,1.294,1.287,1.282,1.282,1.277,1.274,1.274,1.271,1.268,1.268,1.265,1.263,1.262,1.262,1.26,1.259,1.259,1.257,1.254,1.254,1.251,1.248,1.248,1.245,1.242,1.242,1.239,1.237,1.237,1.234,1.231,1.23,1.23,1.229,1.229,1.229,1.227,1.226,1.226,1.226,1.226,1.226,1.226,1.226,1.226,1.226,1.226,1.224,1.224,1.224,1.224,1.226,1.226,1.226,0,0,0,0,0,0,0,0,0,0,1.024,1.024,1.025,1.025,1.025,1.025,1.025,1.025,1.025,1.025,1.026,1.027,1.027,1.027,1.028,1.029,1.029,1.031,1.034,1.034,1.036,1.038,1.041,1.041,1.044,1.044,1.043,1.041,1.041,1.04,1.036,1.036,1.034,1.032,1.03,1.03,1.028,1.027,1.027,1.026,1.026,1.026,1.024,1.023,1.023,1.023,1.022,1.022,1.021,1.02,1.019,1.019,1.019,1.019,1.019,1.019,1.018,1.018,1.018,1.018,1.018,1.017,1.017,1.017,1.017,1.017,1.017,1.018,1.018,1.018,1.019,1.019,1.019,1.019,1.019,1.02,1.021,1.023,1.023,1.024,1.024,1.024,1.025,1.025,1.025,1.026,3.721,3.708,3.708,3.708,3.694,3.681,3.681,3.668,3.655,3.655,3.629,3.604,3.604,3.591,3.579,3.579,3.579,3.566,3.566,3.566,3.554,3.554,3.554,3.554,3.554,3.554,3.542,3.529,3.517,3.517,3.505,3.493,3.493,3.47,3.447,3.447,3.435,3.412,3.412,3.39,3.379,3.379,3.356,3.335,3.335,3.313,3.292,3.281,3.281,3.271,3.261,3.261,3.25,3.24,3.24,3.23,3.23,3.23,3.22,3.22,3.22,3.21,3.21,3.2,3.2,3.2,3.2,3.2,3.2,3.2,3.2,3.19,3.18,3.18,3.18,3.18,3.16,3.16,3.151,3.131,3.131,3.112,3.103,3.103,3.084,3.075,3.075,3.066,3.057,3.057,3.048,3.039,3.039,3.039,3.03,3.021,3.021,3.021,3.012,3.012,3.003,2.994,2.994,2.986,2.968,2.968,2.96,2.943,2.926,2.926,2.91,2.893,2.893,2.869,2.837,2.837,2.806,2.761,2.761,2.724,2.689,2.689,2.661,2.634,2.634,2.607,2.587,2.587,2.568,2.555,2.555,2.542,2.536,2.536,2.53,2.517,2.517,2.505,2.499,2.499,2.487,2.475,2.475,2.469,2.457,2.451,2.451,2.44,2.434,2.434,2.428,2.422,2.422,2.417,2.411,2.411,2.411,2.405,2.405,2.4,2.4,2.394,2.394,2.383,2.377,2.377,2.367,2.356,2.356,2.34,2.324,2.324,2.298,2.282,2.282,2.257,2.238,2.238,2.218,2.199,2.199,2.185,2.181,2.181,2.171,2.167,2.167,2.162,2.162,2.162,2.162,2.162,2.162,2.162,2.162,2.162,2.162,2.158,2.158,2.158,2.158,2.158,2.158,2.158,2.158,2.153,2.153,2.149,2.149,2.149,2.144,2.14,2.14,2.135,2.131,2.131,2.131,2.126,2.122,2.122,2.118,2.113,2.113,2.109,2.105,2.105,2.1,2.096,2.096,2.092,2.088,2.088,2.079,2.071,2.062,2.062,2.054,2.046,2.046,2.03,2.022,2.022,2.014,2.006,2.006,2.002,1.998,1.998,1.998,1.998,1.998,1.998,1.998,1.998,2.002,2.002,2.006,2.006,2.006,2.006,2.01,2.01,2.006,2.006,2.006,2.002,1.998,1.998,1.994,1.987,1.987,1.979,1.971,1.971,1.964,1.96,1.96,1.953,1.942,1.942,1.934,1.927,1.927,1.92,1.913,1.902,1.902,1.895,1.885,1.885,1.878,1.871,1.871,1.867,1.861,1.861,1.854,1.854,1.854,1.847,1.844,1.844,1.837,1.831,1.831,1.824,1.818,1.808,1.808,1.802,1.792,1.792,1.783,1.774,1.774,1.768,1.765,1.765,1.762,1.762,1.762,1.759,1.756,1.756,1.753,1.75,1.75,1.75,1.744,1.735,1.735,1.723,1.709
0.73,0.733,0.734,0.734,0.734,0.734,0.734,0.734,0.734,0,0.917,0.917,0.917,0,0,0,0,0,0,0,0,0,0,0,0,0,0,0,0,0,0,1.037,1.037,1.031,1.028,1.028,1.027,1.027,1.027,1.023,1.021,1.021,1.019,1.017,1.017,1.017,1.016,1.016,1.015,1.014,1.014,1.013,1.013,1.013,1.013,1.012,1.012,1.013,1.013,1.013,1.015,1.015,1.016,1.018,1.02,1.02,1.021,1.022,1.022,1.022,1.022,1.022,1.022,1.023,1.024,1.024,1.024,1.024,1.024,1.024,1.025,1.025,1.027,1.028,1.029,1.028,1.028,1.028,1.026,1.025,1.025,1.024,1.022,1.022,1.021,1.02,1.02,1.019,1.019,1.02,1.02,1.02,1.02,1.02,1.02,1.021,1.022,1.022,0,0,0,0,0,0,0,0,0,0,0,0,0,0,0,0,0,0,0,0,0,0,0,0,0,0,0,0,0,0,0,0,0,0,0,0,0,0,0,1.119,1.119,1.119,1.119,0,0,0,0,0,0,0,0,0,0,0,0,0,0,0,0,1.325,1.315,1.315,1.308,1.303,1.303,1.298,1.294,1.294,1.29,1.285,1.285,1.281,1.276,1.276,1.273,1.271,1.271,1.268,1.266,1.266,1.265,1.263,1.262,1.262,1.262,1.26,1.26,1.259,1.257,1.257,1.254,1.251,1.251,1.249,1.246,1.246,1.245,1.242,1.242,1.24,1.236,1.234,1.234,1.233,1.233,1.233,1.231,1.23,1.23,1.23,1.23,1.231,1.231,1.233,1.233,1.233,1.233,1.234,1.234,1.234,1.236,1.237,1.236,1.236,0,0,0,0,0,0,0,0,0,0,1.026,1.026,1.026,1.026,1.026,1.026,1.026,1.026,1.026,1.026,1.026,1.027,1.027,1.027,1.028,1.029,1.029,1.031,1.034,1.034,1.036,1.038,1.041,1.041,1.043,1.044,1.043,1.043,1.043,1.04,1.038,1.038,1.036,1.034,1.032,1.032,1.03,1.028,1.028,1.027,1.027,1.027,1.026,1.026,1.026,1.025,1.024,1.024,1.023,1.023,1.022,1.022,1.021,1.019,1.019,1.019,1.018,1.018,1.018,1.017,1.017,1.017,1.016,1.015,1.015,1.015,1.016,1.016,1.016,1.018,1.018,1.018,1.019,1.019,1.019,1.019,1.021,1.023,1.023,1.024,1.025,1.024,1.024,1.025,1.025,1.026,1.028,3.694,3.694,3.694,3.681,3.668,3.668,3.655,3.642,3.642,3.629,3.604,3.604,3.591,3.579,3.566,3.566,3.566,3.554,3.554,3.554,3.554,3.554,3.542,3.542,3.542,3.529,3.517,3.505,3.505,3.505,3.493,3.493,3.47,3.458,3.458,3.435,3.412,3.412,3.401,3.379,3.379,3.367,3.345,3.345,3.324,3.313,3.292,3.292,3.281,3.271,3.271,3.271,3.25,3.25,3.24,3.24,3.24,3.24,3.23,3.23,3.22,3.21,3.21,3.21,3.21,3.2,3.2,3.2,3.19,3.19,3.18,3.17,3.17,3.17,3.17,3.151,3.151,3.141,3.122,3.122,3.103,3.094,3.094,3.075,3.066,3.066,3.057,3.057,3.057,3.048,3.039,3.03,3.03,3.03,3.021,3.021,3.021,3.012,3.012,3.003,2.994,2.994,2.986,2.977,2.977,2.96,2.951,2.934,2.934,2.91,2.893,2.893,2.869,2.837,2.837,2.806,2.761,2.761,2.724,2.689,2.689,2.654,2.634,2.634,2.607,2.587,2.587,2.568,2.555,2.555,2.542,2.53,2.53,2.524,2.511,2.511,2.499,2.493,2.493,2.481,2.475,2.475,2.463,2.451,2.445,2.445,2.434,2.428,2.428,2.422,2.417,2.417,2.411,2.411,2.411,2.405,2.405,2.405,2.4,2.394,2.389,2.389,2.383,2.377,2.377,2.361,2.35,2.35,2.329,2.308,2.308,2.293,2.267,2.267,2.247,2.228,2.228,2.209,2.195,2.195,2.181,2.176,2.176,2.171,2.167,2.167,2.162,2.162,2.162,2.162,2.162,2.167,2.167,2.167,2.167,2.167,2.167,2.167,2.167,2.167,2.162,2.162,2.162,2.162,2.158,2.158,2.158,2.153,2.153,2.149,2.149,2.149,2.144,2.14,2.135,2.135,2.131,2.126,2.126,2.126,2.118,2.118,2.113,2.109,2.109,2.105,2.1,2.1,2.092,2.088,2.088,2.079,2.071,2.062,2.062,2.054,2.046,2.046,2.038,2.03,2.03,2.026,2.014,2.014,2.01,2.006,2.006,2.006,2.006,2.006,2.01,2.01,2.01,2.014,2.014,2.014,2.018,2.018,2.022,2.022,2.022,2.022,2.022,2.022,2.018,2.014,2.014,2.006,1.998,1.998,1.987,1.979,1.979,1.971,1.96,1.96,1.953,1.942,1.942,1.931,1.923,1.923,1.916,1.906,1.902,1.895,1.885,1.878,1.878,1.871,1.864,1.864,1.857,1.854,1.854,1.851,1.847,1.847,1.844,1.841,1.841,1.834,1.828,1.828,1.821,1.815,1.811,1.811,1.802,1.792,1.792,1.783,1.774,1.774,1.765,1.762,1.762,1.759,1.756,1.756,1.756,1.753,1.753,1.747,1.744,1.744,1.741,1.735,1.729,1.729,1.72,1.706
0.73,0.733,0.732,0.732,0.732,0.732,0.733,0.733,0.733,0,0.734,0.734,0.917,0,0,0,0,0,0,0,0,0,0,0,0,0,0,0,0,0,0,1.037,1.037,1.034,1.031,1.031,1.029,1.027,1.027,1.026,1.024,1.024,1.021,1.02,1.02,1.018,1.017,1.017,1.016,1.015,1.015,1.015,1.014,1.014,1.015,1.015,1.014,1.014,1.014,1.015,1.016,1.016,1.018,1.019,1.022,1.022,1.023,1.024,1.024,1.024,1.024,1.024,1.025,1.025,1.026,1.026,1.026,1.026,1.026,1.026,1.027,1.027,1.028,1.029,1.03,1.03,1.028,1.028,1.027,1.026,1.026,1.025,1.023,1.023,1.022,1.021,1.021,1.02,1.02,1.021,1.022,1.022,1.022,1.022,1.022,1.023,1.024,1.024,0,0,0,0,0,0,0,0,0,0,0,0,0,0,0,0,0,0,0,0,0,0,0,0,0,0,0,0,0,0,0,0,0,0,0,0,0,0,0,1.119,1.119,1.119,0,0,0,0,0,0,0,0,0,0,0,0,0,0,0,0,0,0,1.315,1.315,1.308,1.303,1.303,1.298,1.294,1.294,1.29,1.285,1.285,1.281,1.276,1.276,1.273,1.271,1.271,1.268,1.266,1.266,1.265,1.263,1.262,1.262,1.262,1.262,1.262,1.262,1.26,1.26,1.257,1.256,1.256,1.256,1.254,1.254,1.251,1.248,1.245,1.245,1.242,1.24,1.24,1.239,1.237,1.237,1.236,1.236,1.236,1.236,1.236,1.236,1.236,1.237,1.239,1.24,1.24,1.242,1.242,1.242,1.243,1.243,1.243,1.243,0,0,0,0,0,0,0,0,0,0,1.027,1.027,1.028,1.028,1.028,1.028,1.028,1.028,1.028,1.028,1.028,1.028,1.029,1.029,1.03,1.031,1.031,1.032,1.034,1.034,1.036,1.038,1.042,1.042,1.043,1.044,1.043,1.043,1.043,1.041,1.038,1.038,1.036,1.035,1.033,1.033,1.03,1.029,1.029,1.029,1.028,1.028,1.027,1.027,1.027,1.026,1.025,1.025,1.025,1.024,1.022,1.022,1.021,1.02,1.02,1.02,1.018,1.018,1.018,1.017,1.017,1.017,1.016,1.015,1.015,1.015,1.016,1.016,1.016,1.018,1.018,1.018,1.019,1.019,1.019,1.019,1.021,1.024,1.024,1.025,1.025,1.024,1.024,1.025,1.025,1.027,1.028,3.694,3.694,3.694,3.681,3.668,3.668,3.655,3.642,3.642,3.629,3.604,3.604,3.591,3.579,3.566,3.566,3.566,3.554,3.554,3.554,3.554,3.554,3.542,3.542,3.542,3.529,3.517,3.505,3.505,3.505,3.493,3.493,3.47,3.458,3.458,3.435,3.424,3.424,3.401,3.39,3.39,3.379,3.356,3.356,3.335,3.313,3.302,3.302,3.292,3.281,3.281,3.271,3.271,3.271,3.25,3.25,3.25,3.24,3.24,3.23,3.23,3.22,3.21,3.21,3.21,3.2,3.2,3.2,3.19,3.19,3.18,3.17,3.17,3.17,3.17,3.151,3.151,3.141,3.122,3.122,3.103,3.094,3.094,3.075,3.066,3.066,3.057,3.057,3.057,3.048,3.039,3.03,3.03,3.03,3.03,3.03,3.021,3.012,3.012,3.003,2.994,2.994,2.986,2.977,2.977,2.968,2.951,2.934,2.934,2.918,2.893,2.893,2.869,2.837,2.837,2.806,2.761,2.761,2.724,2.689,2.689,2.654,2.634,2.634,2.607,2.587,2.587,2.568,2.555,2.555,2.542,2.53,2.53,2.524,2.511,2.511,2.499,2.493,2.493,2.481,2.475,2.475,2.463,2.451,2.445,2.445,2.434,2.428,2.428,2.422,2.417,2.417,2.411,2.411,2.411,2.405,2.405,2.405,2.4,2.394,2.389,2.389,2.383,2.377,2.377,2.361,2.35,2.35,2.329,2.308,2.308,2.293,2.267,2.267,2.247,2.228,2.228,2.209,2.195,2.195,2.181,2.176,2.176,2.171,2.171,2.171,2.167,2.167,2.167,2.171,2.171,2.171,2.176,2.176,2.176,2.176,2.171,2.171,2.171,2.171,2.167,2.167,2.167,2.167,2.167,2.167,2.162,2.158,2.158,2.158,2.153,2.153,2.149,2.144,2.14,2.14,2.14,2.135,2.135,2.131,2.126,2.126,2.118,2.113,2.113,2.113,2.1,2.1,2.096,2.092,2.088,2.088,2.071,2.062,2.062,2.054,2.046,2.046,2.038,2.034,2.034,2.026,2.022,2.022,2.014,2.014,2.014,2.014,2.014,2.014,2.014,2.014,2.018,2.018,2.018,2.022,2.03,2.03,2.03,2.034,2.034,2.034,2.03,2.03,2.026,2.022,2.022,2.014,2.006,2.006,1.99,1.979,1.979,1.971,1.96,1.96,1.953,1.942,1.942,1.931,1.923,1.923,1.916,1.906,1.906,1.895,1.885,1.878,1.878,1.871,1.864,1.864,1.857,1.854,1.854,1.851,1.847,1.847,1.844,1.841,1.841,1.834,1.828,1.828,1.821,1.815,1.811,1.811,1.802,1.792,1.792,1.783,1.774,1.774,1.765,1.762,1.762,1.759,1.756,1.756,1.756,1.753,1.753,1.747,1.744,1.744,1.741,1.735,1.729,1.729,1.72,1.706
0,0.73,0.73,0.731,0.731,0.732,0.733,0.733,0.733,0.734,0.734,0.734,0,0,0,0,0,0,0,0,0,0,0,0,0,0,0,0,0,0,1.038,1.037,1.037,1.034,1.031,1.031,1.029,1.027,1.027,1.026,1.024,1.024,1.021,1.02,1.02,1.018,1.017,1.017,1.016,1.015,1.015,1.015,1.014,1.014,1.015,1.015,1.014,1.014,1.014,1.015,1.016,1.016,1.018,1.019,1.022,1.022,1.023,1.024,1.024,1.024,1.024,1.024,1.025,1.025,1.026,1.026,1.026,1.026,1.026,1.026,1.027,1.027,1.028,1.029,1.03,1.03,1.028,1.028,1.027,1.026,1.026,1.025,1.023,1.023,1.022,1.021,1.021,1.02,1.02,1.021,1.022,1.022,1.022,1.022,1.022,1.023,1.024,1.024,0,0,0,0,0,0,0,0,0,0,0,0,0,0,0,0,0,0,0,0,0,0,0,0,0,0,0,0,0,0,0,0,0,0,0,0,0,0,1.119,1.119,1.119,1.119,1.121,1.121,1.125,1.125,1.122,1.122,1.122,0,0,0,1.108,1.108,1.106,1.106,0,0,0,0,1.315,1.315,1.308,1.295,1.295,1.292,1.287,1.287,1.284,1.279,1.279,1.274,1.271,1.271,1.27,1.268,1.268,1.266,1.265,1.265,1.263,1.263,1.262,1.262,1.262,1.262,1.262,1.262,1.26,1.26,1.257,1.256,1.256,1.256,1.254,1.254,1.251,1.248,1.245,1.245,1.242,1.24,1.24,1.239,1.237,1.237,1.236,1.236,1.236,1.236,1.236,1.236,1.236,1.237,1.239,1.24,1.24,1.242,1.242,1.242,1.243,1.243,1.243,1.243,1.249,0,0,0,0,0,0,0,0,0,1.027,1.027,1.028,1.028,1.028,1.028,1.028,1.028,1.028,1.028,1.028,1.028,1.029,1.029,1.03,1.031,1.031,1.032,1.034,1.034,1.036,1.038,1.041,1.041,1.043,1.044,1.043,1.042,1.042,1.04,1.038,1.037,1.036,1.035,1.033,1.033,1.03,1.029,1.029,1.029,1.028,1.028,1.027,1.027,1.027,1.026,1.025,1.025,1.025,1.024,1.022,1.022,1.021,1.02,1.02,1.02,1.018,1.018,1.017,1.016,1.016,1.016,1.015,1.014,1.014,1.014,1.015,1.015,1.015,1.016,1.017,1.017,1.018,1.018,1.018,1.018,1.02,1.023,1.023,1.024,1.024,1.024,1.023,1.023,1.023,1.025,1.026,3.681,3.681,3.681,3.668,3.655,3.655,3.642,3.629,3.629,3.616,3.591,3.591,3.579,3.566,3.566,3.566,3.554,3.554,3.554,3.542,3.542,3.542,3.542,3.529,3.529,3.517,3.517,3.505,3.505,3.505,3.493,3.493,3.47,3.458,3.458,3.435,3.424,3.424,3.401,3.39,3.39,3.379,3.356,3.345,3.335,3.313,3.302,3.302,3.292,3.281,3.281,3.271,3.271,3.271,3.25,3.25,3.25,3.24,3.24,3.23,3.23,3.22,3.21,3.21,3.2,3.2,3.2,3.19,3.18,3.18,3.17,3.16,3.16,3.151,3.141,3.131,3.131,3.122,3.112,3.112,3.094,3.084,3.084,3.066,3.057,3.057,3.057,3.048,3.048,3.048,3.039,3.03,3.03,3.03,3.03,3.03,3.021,3.012,3.012,3.003,2.994,2.994,2.986,2.977,2.977,2.968,2.951,2.934,2.934,2.918,2.893,2.893,2.869,2.837,2.837,2.806,2.761,2.761,2.724,2.689,2.689,2.654,2.634,2.634,2.607,2.587,2.587,2.568,2.555,2.555,2.542,2.53,2.53,2.517,2.505,2.505,2.499,2.487,2.487,2.475,2.463,2.463,2.451,2.445,2.44,2.44,2.434,2.428,2.428,2.422,2.417,2.417,2.411,2.405,2.405,2.405,2.4,2.4,2.4,2.394,2.389,2.389,2.383,2.372,2.372,2.356,2.34,2.34,2.318,2.303,2.303,2.282,2.262,2.262,2.238,2.218,2.218,2.199,2.185,2.185,2.176,2.171,2.171,2.171,2.171,2.171,2.167,2.167,2.167,2.171,2.171,2.171,2.176,2.176,2.176,2.176,2.171,2.171,2.171,2.171,2.167,2.167,2.167,2.167,2.167,2.167,2.162,2.158,2.158,2.158,2.153,2.153,2.149,2.144,2.14,2.14,2.14,2.135,2.135,2.131,2.126,2.126,2.118,2.113,2.113,2.113,2.1,2.1,2.096,2.092,2.088,2.083,2.071,2.062,2.062,2.054,2.042,2.042,2.038,2.03,2.03,2.022,2.018,2.018,2.014,2.014,2.014,2.01,2.01,2.014,2.014,2.014,2.018,2.018,2.018,2.022,2.03,2.03,2.03,2.034,2.034,2.034,2.03,2.03,2.026,2.022,2.022,2.014,2.006,2.006,1.99,1.979,1.979,1.971,1.96,1.96,1.949,1.938,1.938,1.927,1.916,1.916,1.909,1.898,1.898,1.888,1.878,1.871,1.871,1.864,1.857,1.857,1.851,1.847,1.847,1.844,1.844,1.844,1.841,1.837,1.837,1.831,1.824,1.824,1.818,1.815,1.808,1.808,1.802,1.792,1.792,1.783,1.771,1.771,1.765,1.759,1.759,1.756,1.753,1.753,1.75,1.747,1.747,1.741,1.738,1.738,1.735,1.729,1.729,1.72,1.715,1.703
0.727,0.729,0.73,0.73,0.73,0.732,0.733,0.733,0.733,0.734,0.734,0.734,0.735,0,0,0,0,0,0,0,0,0,0,0,0,0,0,0,0,0,1.036,1.036,1.035,1.033,1.03,1.03,1.03,1.027,1.027,1.024,1.023,1.023,1.02,1.018,1.018,1.017,1.016,1.016,1.015,1.014,1.014,1.014,1.014,1.014,1.015,1.015,1.016,1.016,1.016,1.016,1.017,1.017,1.019,1.021,1.023,1.023,1.025,1.026,1.026,1.026,1.026,1.026,1.027,1.027,1.028,1.028,1.028,1.028,1.027,1.027,1.028,1.028,1.029,1.03,1.03,1.03,1.028,1.028,1.027,1.026,1.026,1.025,1.024,1.024,1.023,1.022,1.022,1.022,1.022,1.023,1.024,1.024,1.024,1.024,1.024,1.025,0,0,0,0,0,0,0,0,0,0,0,0,0,0,0,0,0,0,0,0,0,0,0,1.1,1.1,1.1,1.1,1.103,1.103,0,0,0,0,0,0,0,0,1.118,1.118,1.118,1.118,1.119,1.12,1.12,1.12,1.12,1.12,1.121,1.119,1.119,1.116,1.116,0,1.112,1.108,1.108,1.106,1.106,1.107,1.107,0,0,0,0,0,1.295,1.285,1.279,1.279,1.274,1.271,1.271,1.273,1.273,1.268,1.268,1.266,1.266,1.266,1.265,1.265,1.265,1.263,1.263,1.263,1.263,1.263,1.263,1.263,1.263,1.263,1.263,1.262,1.262,1.262,1.26,1.26,1.257,1.257,1.254,1.253,1.253,1.249,1.246,1.246,1.245,1.243,1.243,1.24,1.24,1.24,1.24,1.24,1.24,1.242,1.242,1.243,1.245,1.245,1.245,1.246,1.246,1.248,1.248,1.249,1.249,1.249,0,0,0,0,0,0,0,0,0,0,0,0,1.03,1.03,1.03,1.029,1.029,1.029,1.029,1.029,1.03,1.03,1.03,1.031,1.032,1.032,1.033,1.034,1.034,1.035,1.038,1.041,1.041,1.043,1.043,1.042,1.042,1.042,1.04,1.038,1.037,1.036,1.034,1.033,1.033,1.031,1.03,1.03,1.029,1.028,1.028,1.028,1.028,1.028,1.028,1.027,1.026,1.025,1.024,1.023,1.023,1.022,1.02,1.02,1.02,1.018,1.018,1.017,1.016,1.016,1.015,1.014,1.014,1.013,1.013,1.014,1.014,1.014,1.015,1.016,1.016,1.016,1.017,1.017,1.018,1.02,1.023,1.022,1.022,1.022,1.022,1.022,1.022,1.022,1.022,1.026,3.681,3.668,3.668,3.655,3.642,3.642,3.629,3.616,3.616,3.604,3.591,3.591,3.579,3.566,3.566,3.566,3.554,3.542,3.542,3.542,3.542,3.542,3.529,3.517,3.517,3.517,3.517,3.505,3.505,3.505,3.493,3.493,3.482,3.47,3.47,3.447,3.435,3.435,3.412,3.401,3.401,3.379,3.367,3.345,3.345,3.335,3.313,3.313,3.313,3.302,3.302,3.292,3.281,3.281,3.271,3.261,3.261,3.25,3.24,3.23,3.23,3.22,3.21,3.21,3.2,3.19,3.19,3.18,3.17,3.17,3.16,3.151,3.151,3.141,3.131,3.131,3.122,3.103,3.094,3.094,3.084,3.066,3.066,3.057,3.057,3.057,3.057,3.048,3.048,3.048,3.039,3.039,3.039,3.03,3.03,3.03,3.03,3.021,3.021,3.012,3.003,3.003,2.994,2.986,2.986,2.977,2.96,2.943,2.943,2.926,2.901,2.901,2.877,2.845,2.845,2.806,2.761,2.761,2.724,2.696,2.696,2.668,2.64,2.64,2.613,2.587,2.587,2.568,2.555,2.555,2.542,2.53,2.53,2.517,2.505,2.505,2.493,2.481,2.481,2.463,2.457,2.457,2.445,2.44,2.434,2.434,2.428,2.422,2.422,2.417,2.411,2.411,2.405,2.405,2.405,2.4,2.4,2.4,2.394,2.394,2.383,2.383,2.377,2.367,2.367,2.356,2.334,2.334,2.313,2.298,2.298,2.272,2.252,2.252,2.233,2.214,2.214,2.195,2.181,2.181,2.176,2.171,2.171,2.171,2.171,2.171,2.171,2.171,2.171,2.176,2.176,2.181,2.181,2.181,2.181,2.185,2.181,2.181,2.176,2.176,2.176,2.176,2.176,2.171,2.171,2.171,2.167,2.162,2.162,2.162,2.158,2.158,2.153,2.153,2.144,2.144,2.144,2.14,2.14,2.14,2.131,2.131,2.126,2.118,2.118,2.113,2.109,2.109,2.1,2.092,2.088,2.083,2.071,2.058,2.058,2.05,2.042,2.042,2.03,2.022,2.022,2.018,2.014,2.014,2.01,2.01,2.01,2.01,2.01,2.014,2.018,2.018,2.022,2.022,2.022,2.03,2.034,2.034,2.038,2.038,2.038,2.038,2.038,2.038,2.038,2.03,2.03,2.022,2.01,2.01,1.994,1.983,1.983,1.971,1.956,1.956,1.945,1.931,1.931,1.92,1.909,1.909,1.898,1.891,1.891,1.878,1.867,1.867,1.861,1.854,1.847,1.847,1.844,1.844,1.844,1.837,1.837,1.837,1.834,1.834,1.834,1.828,1.821,1.821,1.815,1.808,1.808,1.805,1.799,1.789,1.789,1.78,1.771,1.771,1.762,1.759,1.759,1.756,1.75,1.75,1.747,1.744,1.744,1.738,1.732,1.732,1.729,1.723,1.723,1.718,1.709,1.7
0.727,0.729,0.73,0.73,0.73,0.732,0.733,0.733,0.733,0.734,0.734,0.734,0.735,0,0,0,0,0,0,0,0,0,0,0,0,0,0,0,0,0,1.036,1.036,1.035,1.033,1.03,1.03,1.03,1.027,1.027,1.024,1.023,1.023,1.02,1.018,1.018,1.017,1.016,1.016,1.015,1.014,1.014,1.014,1.014,1.014,1.015,1.015,1.016,1.016,1.016,1.016,1.017,1.017,1.019,1.022,1.024,1.024,1.026,1.028,1.028,1.029,1.029,1.029,1.029,1.03,1.031,1.031,1.03,1.03,1.029,1.029,1.029,1.029,1.029,1.03,1.03,1.03,1.028,1.028,1.027,1.027,1.027,1.026,1.025,1.025,1.023,1.023,1.023,1.023,1.023,1.024,1.024,1.024,1.025,1.025,1.025,1.026,0,0,0,0,0,0,0,0,0,0,0,0,0,0,0,0,0,0,0,0,0,0,0,1.1,1.1,1.1,1.1,1.103,1.103,0,0,0,0,0,0,0,0,1.118,1.118,1.118,1.118,1.12,1.12,1.12,1.12,1.12,1.12,1.121,1.119,1.119,1.116,1.116,0,1.112,1.11,1.11,1.107,1.107,1.107,1.107,0,0,0,0,0,0,1.285,1.279,1.279,1.274,1.271,1.271,1.273,1.273,1.268,1.268,1.266,1.266,1.266,1.265,1.265,1.265,1.265,1.263,1.263,1.263,1.263,1.265,1.266,1.266,1.266,1.266,1.266,1.266,1.266,1.266,1.266,1.265,1.265,1.262,1.26,1.26,1.257,1.254,1.254,1.251,1.248,1.248,1.245,1.245,1.245,1.243,1.243,1.245,1.245,1.245,1.248,1.248,1.248,1.249,1.249,1.249,1.251,1.251,1.253,1.253,1.253,0,0,0,0,0,0,0,0,0,0,0,0,0,1.031,1.031,1.03,1.029,1.029,1.029,1.03,1.03,1.03,1.03,1.031,1.032,1.032,1.033,1.034,1.034,1.035,1.038,1.041,1.041,1.043,1.043,1.042,1.042,1.042,1.04,1.038,1.038,1.036,1.034,1.033,1.033,1.031,1.03,1.03,1.029,1.029,1.029,1.028,1.028,1.028,1.028,1.027,1.026,1.026,1.025,1.023,1.023,1.022,1.02,1.02,1.02,1.018,1.018,1.017,1.016,1.016,1.015,1.014,1.014,1.013,1.013,1.014,1.014,1.014,1.015,1.016,1.016,1.016,1.017,1.017,1.018,1.02,1.023,1.022,1.022,1.022,1.022,1.022,1.022,1.022,1.022,3.681,3.681,3.668,3.668,3.655,3.642,3.642,3.629,3.616,3.616,3.604,3.591,3.591,3.579,3.566,3.566,3.566,3.554,3.542,3.542,3.542,3.542,3.542,3.529,3.517,3.517,3.517,3.517,3.505,3.505,3.505,3.493,3.493,3.493,3.47,3.47,3.458,3.435,3.435,3.412,3.412,3.412,3.39,3.379,3.356,3.356,3.345,3.335,3.335,3.324,3.313,3.313,3.302,3.292,3.292,3.281,3.271,3.271,3.271,3.25,3.24,3.24,3.22,3.21,3.21,3.2,3.19,3.19,3.18,3.17,3.17,3.16,3.151,3.151,3.141,3.131,3.131,3.122,3.103,3.094,3.094,3.084,3.066,3.066,3.057,3.057,3.057,3.057,3.048,3.048,3.048,3.039,3.039,3.039,3.039,3.039,3.039,3.03,3.03,3.03,3.021,3.012,3.012,3.003,3.003,3.003,2.986,2.977,2.951,2.951,2.934,2.91,2.91,2.877,2.853,2.853,2.806,2.768,2.768,2.732,2.703,2.703,2.675,2.647,2.647,2.62,2.6,2.6,2.581,2.568,2.568,2.549,2.53,2.53,2.517,2.505,2.505,2.493,2.481,2.481,2.463,2.457,2.457,2.445,2.44,2.434,2.434,2.428,2.422,2.422,2.417,2.411,2.411,2.405,2.405,2.405,2.4,2.4,2.4,2.394,2.394,2.383,2.383,2.377,2.367,2.367,2.356,2.334,2.334,2.313,2.298,2.298,2.272,2.252,2.252,2.233,2.214,2.214,2.195,2.181,2.181,2.176,2.171,2.171,2.171,2.171,2.176,2.171,2.171,2.176,2.181,2.181,2.185,2.19,2.19,2.19,2.19,2.185,2.185,2.181,2.181,2.181,2.181,2.181,2.176,2.171,2.171,2.171,2.167,2.167,2.162,2.162,2.162,2.158,2.153,2.153,2.153,2.149,2.144,2.144,2.144,2.135,2.135,2.131,2.122,2.122,2.122,2.113,2.113,2.105,2.096,2.088,2.088,2.075,2.058,2.058,2.05,2.042,2.042,2.03,2.022,2.022,2.018,2.014,2.014,2.01,2.01,2.01,2.01,2.01,2.014,2.018,2.018,2.022,2.026,2.026,2.03,2.034,2.034,2.038,2.042,2.046,2.046,2.046,2.046,2.042,2.034,2.034,2.026,2.01,2.01,1.994,1.983,1.983,1.971,1.956,1.956,1.945,1.931,1.931,1.92,1.909,1.909,1.898,1.891,1.891,1.878,1.867,1.867,1.861,1.854,1.847,1.847,1.844,1.844,1.844,1.837,1.837,1.837,1.834,1.834,1.834,1.828,1.821,1.821,1.815,1.808,1.808,1.805,1.799,1.789,1.789,1.78,1.771,1.771,1.762,1.759,1.759,1.756,1.75,1.75,1.747,1.744,1.744,1.738,1.732,1.732,1.729,1.723,1.723,1.718,1.709,1.7
0.727,0.728,0.73,0.73,0.73,0.732,0.733,0.733,0.733,0.733,0.733,0.734,0.734,0.735,0.735,0,0,0,0,0,0,0,0,0,0,0,0,0,0,1.032,1.031,1.031,1.031,1.03,1.028,1.028,1.028,1.026,1.026,1.023,1.021,1.021,1.018,1.016,1.016,1.014,1.013,1.013,1.013,1.013,1.013,1.013,1.013,1.013,1.014,1.014,1.015,1.016,1.016,1.016,1.017,1.017,1.019,1.022,1.024,1.024,1.026,1.028,1.028,1.029,1.029,1.029,1.029,1.03,1.031,1.031,1.03,1.03,1.029,1.029,1.029,1.029,1.029,1.03,1.03,1.029,1.028,1.028,1.027,1.026,1.026,1.026,1.025,1.025,1.023,1.023,1.023,1.023,1.023,1.024,1.024,1.024,1.025,1.025,1.025,1.026,0,0,0,0,0,0,0,0,0,0,0,0,0,0,0,0,0,0,0,0,1.1,1.1,1.1,1.1,1.1,1.1,1.1,1.103,1.103,0,0,1.115,1.115,1.115,1.116,1.116,1.116,1.116,1.118,1.118,1.118,1.12,1.12,1.12,1.12,1.12,1.12,1.12,1.119,1.119,1.116,1.115,1.115,1.112,1.11,1.11,1.107,1.107,1.107,1.106,1.106,0,0,0,0,0,1.285,1.253,1.253,1.253,1.254,1.263,1.268,1.268,1.268,1.268,1.266,1.266,1.266,1.265,1.265,1.265,1.265,1.263,1.263,1.263,1.263,1.265,1.266,1.266,1.266,1.266,1.266,1.266,1.266,1.266,1.266,1.265,1.265,1.262,1.26,1.26,1.257,1.254,1.254,1.251,1.248,1.248,1.245,1.245,1.245,1.243,1.243,1.245,1.245,1.245,1.248,1.248,1.248,1.249,1.249,1.249,1.251,1.251,1.253,1.253,1.253,1.256,1.256,1.257,0,0,0,0,0,0,0,0,0,0,1.031,1.031,1.03,1.029,1.029,1.029,1.03,1.03,1.03,1.03,1.031,1.031,1.031,1.032,1.034,1.034,1.035,1.037,1.04,1.04,1.042,1.042,1.042,1.041,1.041,1.04,1.037,1.037,1.036,1.034,1.033,1.033,1.031,1.029,1.029,1.029,1.028,1.028,1.028,1.028,1.028,1.028,1.027,1.026,1.026,1.024,1.023,1.023,1.022,1.02,1.02,1.02,1.018,1.018,1.017,1.016,1.016,1.015,1.014,1.014,1.012,1.012,1.013,1.013,1.013,1.014,1.015,1.015,1.016,1.016,1.016,1.017,1.018,1.021,1.021,1.021,1.021,1.019,1.019,1.019,1.019,1.019,1.02,1.02,1.02,3.655,3.642,3.629,3.629,3.616,3.604,3.604,3.591,3.579,3.579,3.566,3.566,3.554,3.554,3.554,3.542,3.542,3.542,3.529,3.529,3.529,3.517,3.517,3.517,3.517,3.505,3.505,3.505,3.493,3.493,3.493,3.47,3.47,3.458,3.435,3.435,3.412,3.412,3.412,3.39,3.379,3.356,3.356,3.345,3.335,3.335,3.324,3.313,3.313,3.302,3.292,3.292,3.281,3.271,3.271,3.271,3.25,3.24,3.24,3.22,3.21,3.21,3.2,3.19,3.19,3.17,3.16,3.16,3.151,3.131,3.131,3.122,3.112,3.112,3.103,3.094,3.084,3.084,3.075,3.066,3.066,3.057,3.048,3.048,3.048,3.048,3.048,3.048,3.039,3.039,3.039,3.039,3.039,3.039,3.03,3.03,3.03,3.021,3.012,3.012,3.003,3.003,3.003,2.986,2.977,2.951,2.951,2.934,2.91,2.91,2.877,2.853,2.853,2.806,2.768,2.768,2.732,2.703,2.703,2.675,2.647,2.647,2.62,2.6,2.6,2.581,2.568,2.568,2.549,2.53,2.53,2.517,2.505,2.505,2.487,2.475,2.475,2.463,2.445,2.445,2.44,2.428,2.428,2.422,2.417,2.417,2.417,2.411,2.405,2.405,2.405,2.4,2.4,2.4,2.4,2.4,2.394,2.389,2.383,2.383,2.377,2.367,2.367,2.35,2.334,2.334,2.313,2.293,2.293,2.272,2.252,2.252,2.233,2.214,2.214,2.195,2.181,2.181,2.176,2.171,2.171,2.171,2.171,2.176,2.171,2.171,2.176,2.181,2.181,2.185,2.19,2.19,2.19,2.19,2.185,2.185,2.181,2.181,2.181,2.181,2.181,2.176,2.171,2.171,2.171,2.167,2.167,2.162,2.162,2.162,2.158,2.153,2.153,2.153,2.149,2.144,2.144,2.144,2.135,2.135,2.131,2.122,2.122,2.122,2.113,2.113,2.105,2.096,2.088,2.088,2.071,2.058,2.058,2.046,2.034,2.034,2.026,2.018,2.018,2.01,2.006,2.006,2.002,2.002,2.006,2.006,2.006,2.01,2.014,2.014,2.018,2.022,2.022,2.03,2.034,2.034,2.038,2.042,2.046,2.046,2.046,2.046,2.042,2.034,2.034,2.026,2.01,2.01,1.99,1.979,1.979,1.964,1.949,1.949,1.938,1.923,1.923,1.909,1.902,1.902,1.891,1.881,1.881,1.871,1.861,1.861,1.851,1.847,1.841,1.841,1.837,1.837,1.837,1.834,1.834,1.834,1.831,1.828,1.828,1.824,1.815,1.815,1.811,1.805,1.805,1.802,1.796,1.786,1.786,1.777,1.768,1.768,1.762,1.759,1.759,1.753,1.75,1.75,1.747,1.741,1.741,1.735,1.729,1.729,1.723,1.718,1.718,1.712,1.706,1.7
0.727,0.727,0.729,0.729,0.729,0.731,0.732,0.732,0.732,0.733,0.733,0.733,0.734,0.734,0.734,0.734,0,0,0,0,0,0,0,0,0,0,0,0,0,1.02,1.02,1.021,1.021,1.022,1.023,1.022,1.022,1.02,1.02,1.019,1.017,1.017,1.015,1.014,1.014,1.012,1.011,1.011,1.011,1.011,1.012,1.012,1.013,1.013,1.014,1.014,1.015,1.016,1.016,1.017,1.018,1.018,1.02,1.022,1.025,1.025,1.027,1.029,1.029,1.029,1.03,1.03,1.03,1.031,1.032,1.032,1.031,1.031,1.029,1.029,1.029,1.029,1.03,1.03,1.03,1.029,1.028,1.028,1.027,1.026,1.026,1.026,1.025,1.025,1.024,1.024,1.024,1.025,1.025,1.026,1.026,1.026,1.026,1.027,1.027,1.028,1.031,0,0,0,0,0,0,0,0,0,0,0,0,0,0,0,0,0,1.101,1.101,1.1,1.1,1.1,1.1,1.101,1.102,1.102,1.106,1.11,1.11,1.11,1.114,1.115,1.115,1.116,1.116,1.116,1.116,1.119,1.119,1.119,1.121,1.121,1.121,1.121,1.121,1.12,1.119,1.118,1.118,1.116,1.115,1.115,1.113,1.11,1.11,1.108,1.107,1.107,1.106,1.106,1.108,1.108,1.108,1.112,0,0,1.253,1.253,1.24,1.24,1.254,1.254,1.265,1.268,1.268,1.266,1.266,1.266,1.265,1.265,1.265,1.265,1.265,1.265,1.266,1.266,1.266,1.268,1.268,1.27,1.27,1.27,1.271,1.273,1.273,1.273,1.271,1.271,1.268,1.266,1.266,1.262,1.259,1.259,1.256,1.253,1.253,1.249,1.248,1.248,1.248,1.248,1.248,1.248,1.248,1.251,1.253,1.253,1.253,1.253,1.253,1.254,1.254,1.256,1.256,1.256,1.256,1.256,1.257,1.263,1.263,1.265,0,0,0,0,0,0,0,0,0,1.032,1.031,1.031,1.031,1.031,1.031,1.031,1.031,1.031,1.031,1.031,1.032,1.033,1.033,1.035,1.037,1.04,1.04,1.042,1.042,1.042,1.041,1.041,1.038,1.037,1.037,1.036,1.034,1.033,1.033,1.03,1.029,1.029,1.028,1.028,1.028,1.028,1.028,1.028,1.028,1.027,1.026,1.026,1.024,1.023,1.023,1.023,1.022,1.022,1.02,1.019,1.019,1.018,1.016,1.016,1.015,1.013,1.013,1.011,1.011,1.012,1.012,1.012,1.013,1.014,1.014,1.014,1.014,1.014,1.015,1.017,1.018,1.018,1.019,1.019,1.017,1.016,1.016,1.016,1.016,1.016,1.016,1.016,1.016,3.629,3.616,3.616,3.604,3.591,3.591,3.591,3.579,3.579,3.566,3.566,3.554,3.554,3.542,3.542,3.542,3.542,3.529,3.529,3.529,3.517,3.517,3.517,3.517,3.505,3.505,3.505,3.505,3.505,3.493,3.482,3.482,3.458,3.447,3.447,3.424,3.412,3.412,3.401,3.39,3.367,3.367,3.356,3.345,3.345,3.335,3.335,3.335,3.324,3.313,3.313,3.292,3.281,3.281,3.271,3.261,3.24,3.24,3.23,3.21,3.21,3.2,3.18,3.18,3.17,3.151,3.151,3.141,3.122,3.122,3.112,3.103,3.103,3.084,3.084,3.075,3.075,3.066,3.057,3.057,3.057,3.048,3.048,3.048,3.048,3.048,3.048,3.039,3.039,3.039,3.039,3.039,3.039,3.039,3.039,3.039,3.03,3.021,3.021,3.021,3.012,3.012,3.003,2.986,2.96,2.96,2.943,2.918,2.918,2.885,2.861,2.861,2.814,2.783,2.783,2.746,2.717,2.717,2.689,2.661,2.661,2.634,2.613,2.613,2.594,2.574,2.574,2.555,2.536,2.536,2.517,2.499,2.499,2.481,2.463,2.463,2.451,2.44,2.44,2.428,2.422,2.422,2.417,2.411,2.405,2.405,2.405,2.405,2.405,2.4,2.394,2.394,2.394,2.394,2.394,2.394,2.389,2.383,2.383,2.377,2.367,2.367,2.35,2.334,2.334,2.313,2.293,2.293,2.272,2.252,2.252,2.233,2.214,2.214,2.195,2.185,2.185,2.176,2.176,2.176,2.176,2.176,2.176,2.176,2.181,2.181,2.185,2.185,2.19,2.195,2.195,2.195,2.195,2.195,2.19,2.185,2.185,2.185,2.181,2.181,2.181,2.176,2.176,2.171,2.171,2.171,2.167,2.162,2.162,2.162,2.158,2.158,2.158,2.149,2.149,2.149,2.149,2.14,2.14,2.131,2.131,2.131,2.122,2.113,2.113,2.109,2.096,2.088,2.088,2.071,2.054,2.054,2.042,2.03,2.03,2.022,2.01,2.01,2.002,1.998,1.998,1.998,1.998,1.998,1.998,1.998,2.006,2.006,2.01,2.014,2.022,2.022,2.03,2.034,2.034,2.042,2.046,2.05,2.046,2.046,2.046,2.042,2.03,2.03,2.018,2.002,2.002,1.987,1.971,1.971,1.956,1.938,1.938,1.927,1.916,1.916,1.902,1.891,1.891,1.881,1.871,1.871,1.861,1.851,1.851,1.844,1.837,1.837,1.837,1.834,1.834,1.834,1.831,1.828,1.828,1.828,1.824,1.824,1.821,1.815,1.815,1.808,1.805,1.805,1.802,1.796,1.786,1.786,1.777,1.768,1.768,1.762,1.759,1.759,1.753,1.75,1.75,1.744,1.738,1.738,1.732,1.726,1.726,1.72,1.715,1.715,1.709,1.706,1.706
0.727,0.727,0.729,0.729,0.729,0.731,0.732,0.732,0.732,0.733,0.733,0.733,0.734,0.734,0.734,0.734,0,0,0,0,0,0,0,0,0,0,0,0,0,1.02,1.02,1.021,1.021,1.022,1.023,1.022,1.022,1.02,1.02,1.019,1.017,1.017,1.015,1.014,1.014,1.012,1.011,1.011,1.011,1.011,1.012,1.012,1.013,1.013,1.014,1.014,1.015,1.016,1.016,1.017,1.018,1.018,1.021,1.022,1.026,1.026,1.028,1.03,1.03,1.031,1.031,1.032,1.032,1.033,1.033,1.033,1.032,1.032,1.031,1.031,1.031,1.031,1.031,1.031,1.031,1.03,1.029,1.029,1.028,1.027,1.027,1.027,1.026,1.026,1.026,1.025,1.025,1.026,1.026,1.027,1.028,1.028,1.028,1.028,1.028,1.03,1.031,0,0,0,0,0,0,0,0,0,0,0,0,0,0,0,0,0,1.101,1.101,1.101,1.101,1.102,1.102,1.103,1.103,1.103,1.106,1.11,1.11,1.11,1.114,1.115,1.115,1.118,1.118,1.118,1.118,1.119,1.119,1.119,1.121,1.121,1.121,1.121,1.121,1.12,1.119,1.118,1.118,1.116,1.115,1.115,1.114,1.112,1.112,1.109,1.108,1.108,1.107,1.107,1.108,1.108,1.108,1.112,0,0,0,0,1.24,1.24,1.254,1.254,1.265,1.268,1.268,1.268,1.268,1.268,1.266,1.266,1.266,1.266,1.266,1.268,1.268,1.268,1.27,1.271,1.271,1.273,1.274,1.274,1.274,1.277,1.277,1.276,1.276,1.276,1.274,1.273,1.273,1.268,1.263,1.263,1.26,1.257,1.257,1.253,1.253,1.251,1.251,1.251,1.253,1.253,1.253,1.254,1.256,1.256,1.256,1.257,1.257,1.257,1.257,1.259,1.259,1.259,1.26,1.26,1.26,1.263,1.263,1.265,0,0,0,0,0,0,0,0,0,1.032,1.032,1.032,1.032,1.032,1.031,1.031,1.031,1.031,1.031,1.031,1.032,1.033,1.033,1.035,1.037,1.04,1.04,1.042,1.043,1.042,1.041,1.041,1.038,1.037,1.037,1.036,1.034,1.033,1.033,1.03,1.029,1.029,1.028,1.028,1.028,1.028,1.028,1.028,1.028,1.027,1.026,1.026,1.025,1.024,1.024,1.023,1.022,1.022,1.021,1.019,1.019,1.018,1.016,1.016,1.015,1.013,1.013,1.011,1.011,1.012,1.012,1.012,1.013,1.014,1.014,1.014,1.014,1.014,1.015,1.017,1.018,1.018,1.019,1.019,1.017,1.016,1.016,1.016,1.016,1.016,1.016,1.016,1.016,3.629,3.616,3.616,3.604,3.591,3.591,3.591,3.579,3.579,3.566,3.566,3.554,3.554,3.542,3.542,3.542,3.542,3.529,3.529,3.529,3.529,3.529,3.517,3.517,3.505,3.505,3.505,3.505,3.505,3.505,3.493,3.493,3.47,3.458,3.458,3.435,3.424,3.424,3.412,3.401,3.379,3.379,3.367,3.356,3.356,3.356,3.345,3.345,3.335,3.324,3.324,3.302,3.292,3.292,3.281,3.261,3.25,3.25,3.23,3.22,3.22,3.2,3.18,3.18,3.17,3.151,3.151,3.141,3.122,3.122,3.112,3.103,3.103,3.084,3.084,3.075,3.075,3.066,3.057,3.057,3.057,3.048,3.048,3.048,3.048,3.048,3.048,3.048,3.048,3.048,3.039,3.039,3.048,3.048,3.039,3.039,3.039,3.039,3.039,3.039,3.03,3.012,3.012,2.994,2.968,2.968,2.943,2.918,2.918,2.893,2.861,2.861,2.829,2.791,2.791,2.761,2.739,2.739,2.71,2.682,2.682,2.661,2.634,2.634,2.613,2.587,2.587,2.568,2.542,2.542,2.517,2.499,2.499,2.481,2.463,2.463,2.451,2.44,2.44,2.428,2.422,2.422,2.417,2.411,2.405,2.405,2.405,2.405,2.405,2.4,2.394,2.394,2.394,2.394,2.394,2.394,2.389,2.383,2.383,2.377,2.367,2.367,2.35,2.334,2.334,2.313,2.293,2.293,2.272,2.252,2.252,2.233,2.218,2.218,2.204,2.19,2.19,2.185,2.181,2.181,2.181,2.181,2.181,2.181,2.185,2.185,2.19,2.19,2.195,2.199,2.199,2.199,2.199,2.195,2.195,2.19,2.19,2.185,2.185,2.185,2.181,2.181,2.181,2.176,2.171,2.171,2.167,2.167,2.167,2.162,2.158,2.158,2.158,2.153,2.153,2.153,2.149,2.14,2.14,2.135,2.131,2.131,2.122,2.118,2.118,2.113,2.105,2.088,2.088,2.071,2.054,2.054,2.042,2.03,2.03,2.022,2.01,2.01,2.002,1.998,1.998,1.998,1.998,1.998,1.998,1.998,2.006,2.006,2.01,2.014,2.022,2.022,2.03,2.034,2.034,2.046,2.05,2.05,2.05,2.046,2.046,2.042,2.03,2.03,2.018,2.002,2.002,1.987,1.971,1.971,1.956,1.938,1.938,1.927,1.916,1.916,1.902,1.891,1.891,1.881,1.871,1.871,1.861,1.851,1.851,1.844,1.837,1.837,1.837,1.834,1.834,1.834,1.831,1.828,1.828,1.828,1.824,1.824,1.821,1.815,1.815,1.808,1.805,1.805,1.802,1.796,1.786,1.786,1.777,1.771,1.771,1.762,1.759,1.759,1.753,1.75,1.75,1.744,1.738,1.738,1.732,1.726,1.726,1.72,1.715,1.715,1.709,1.706,1.706
0.727,0.727,0.729,0.729,0.729,0.731,0.732,0.732,0.732,0.733,0.733,0.733,0.734,0.734,0.734,0.734,0,0,0,0,0,0,0,0,0,0,0,0,0,1.02,1.01,1.01,1.01,1.012,1.014,1.014,1.015,1.016,1.015,1.013,1.012,1.012,1.011,1.01,1.01,1.01,1.01,1.01,1.01,1.01,1.01,1.01,1.011,1.013,1.014,1.014,1.015,1.016,1.016,1.017,1.018,1.018,1.021,1.022,1.026,1.026,1.028,1.03,1.03,1.031,1.031,1.032,1.032,1.033,1.033,1.033,1.032,1.032,1.031,1.031,1.031,1.031,1.031,1.031,1.031,1.03,1.029,1.029,1.028,1.027,1.027,1.027,1.026,1.026,1.026,1.025,1.025,1.026,1.026,1.027,1.028,1.028,1.028,1.028,1.028,1.03,1.031,0,0,0,0,0,0,0,0,0,0,0,0,0,0,0,0,1.102,1.101,1.101,1.101,1.101,1.102,1.102,1.103,1.103,1.103,1.106,1.11,1.11,1.11,1.114,1.115,1.115,1.118,1.118,1.118,1.118,1.119,1.119,1.119,1.121,1.121,1.121,1.12,1.12,1.12,1.119,1.118,1.118,1.116,1.115,1.115,1.114,1.112,1.112,1.109,1.108,1.108,1.107,1.107,1.108,1.108,1.108,1.11,1.118,1.118,1.139,0,1.24,1.24,1.245,1.245,1.26,1.268,1.268,1.268,1.268,1.268,1.266,1.266,1.266,1.266,1.266,1.268,1.268,1.268,1.27,1.271,1.271,1.273,1.274,1.274,1.274,1.277,1.277,1.276,1.276,1.276,1.274,1.273,1.273,1.268,1.263,1.263,1.26,1.257,1.257,1.253,1.253,1.251,1.251,1.251,1.253,1.253,1.253,1.254,1.256,1.256,1.256,1.257,1.257,1.257,1.257,1.259,1.259,1.259,1.26,1.26,1.26,1.263,1.263,1.265,0,0,0,0,0,0,0,0,0,1.032,1.032,1.032,1.032,1.032,1.031,1.031,1.031,1.031,1.031,1.031,1.032,1.033,1.033,1.035,1.037,1.04,1.04,1.042,1.042,1.042,1.04,1.04,1.038,1.037,1.037,1.036,1.034,1.033,1.033,1.03,1.029,1.029,1.028,1.028,1.028,1.028,1.027,1.027,1.027,1.027,1.026,1.026,1.025,1.024,1.024,1.023,1.022,1.022,1.021,1.019,1.019,1.018,1.016,1.016,1.015,1.013,1.013,1.011,1.011,1.011,1.011,1.011,1.012,1.013,1.013,1.013,1.013,1.013,1.014,1.015,1.016,1.016,1.014,1.014,1.013,1.011,1.011,1.011,1.01,1.01,1.009,1.006,1.006,1.006,3.604,3.604,3.591,3.579,3.579,3.579,3.566,3.566,3.566,3.554,3.554,3.554,3.542,3.542,3.542,3.542,3.529,3.529,3.529,3.529,3.529,3.517,3.517,3.505,3.505,3.505,3.505,3.505,3.505,3.493,3.493,3.47,3.458,3.458,3.435,3.424,3.424,3.412,3.401,3.379,3.379,3.367,3.356,3.356,3.356,3.345,3.345,3.335,3.324,3.324,3.302,3.292,3.292,3.281,3.261,3.25,3.25,3.23,3.22,3.22,3.2,3.18,3.18,3.16,3.151,3.151,3.131,3.112,3.112,3.103,3.094,3.094,3.075,3.066,3.066,3.066,3.057,3.057,3.057,3.057,3.048,3.048,3.048,3.048,3.048,3.048,3.048,3.048,3.048,3.039,3.039,3.048,3.048,3.039,3.039,3.039,3.039,3.039,3.039,3.03,3.012,3.012,2.994,2.968,2.968,2.943,2.918,2.918,2.893,2.861,2.861,2.829,2.791,2.791,2.761,2.739,2.739,2.71,2.682,2.682,2.661,2.634,2.634,2.613,2.587,2.587,2.568,2.542,2.542,2.517,2.499,2.499,2.481,2.463,2.463,2.445,2.428,2.428,2.422,2.411,2.411,2.405,2.405,2.4,2.4,2.394,2.394,2.394,2.394,2.394,2.394,2.394,2.394,2.394,2.394,2.389,2.383,2.383,2.377,2.367,2.367,2.35,2.334,2.334,2.313,2.293,2.293,2.272,2.252,2.252,2.233,2.218,2.218,2.204,2.19,2.19,2.185,2.181,2.181,2.181,2.181,2.181,2.181,2.185,2.185,2.19,2.19,2.195,2.199,2.199,2.199,2.199,2.195,2.195,2.19,2.19,2.185,2.185,2.185,2.181,2.181,2.181,2.176,2.171,2.171,2.167,2.167,2.167,2.162,2.158,2.158,2.158,2.153,2.153,2.153,2.149,2.14,2.14,2.135,2.131,2.131,2.122,2.118,2.118,2.113,2.096,2.088,2.088,2.067,2.054,2.05,2.038,2.026,2.026,2.014,2.002,2.002,1.994,1.99,1.99,1.987,1.987,1.987,1.987,1.99,1.998,1.998,1.998,2.006,2.018,2.018,2.022,2.03,2.03,2.038,2.046,2.05,2.05,2.042,2.042,2.034,2.022,2.022,2.006,1.994,1.994,1.975,1.96,1.96,1.945,1.931,1.931,1.92,1.906,1.906,1.895,1.885,1.885,1.874,1.864,1.864,1.854,1.844,1.844,1.837,1.834,1.834,1.834,1.834,1.831,1.831,1.828,1.824,1.824,1.824,1.821,1.821,1.818,1.811,1.811,1.808,1.805,1.805,1.799,1.792,1.786,1.786,1.777,1.771,1.771,1.762,1.759,1.759,1.753,1.747,1.747,1.744,1.738,1.738,1.729,1.723,1.723,1.718,1.715,1.715,1.709,1.7,1.7
0.727,0.727,0.729,0.729,0.729,0.732,0.732,0.732,0.733,0.733,0.733,0.733,0.734,0.735,0.734,0.734,0,0,0,0,0,0,0,0,0,0,0,0,0,0,1.01,1.01,1.003,1.003,1.005,1.005,1.006,1.008,1.007,1.006,1.006,1.006,1.005,1.005,1.005,1.005,1.005,1.006,1.006,1.007,1.008,1.008,1.01,1.012,1.013,1.013,1.015,1.016,1.016,1.018,1.019,1.019,1.022,1.023,1.027,1.027,1.029,1.031,1.031,1.032,1.032,1.033,1.033,1.033,1.034,1.034,1.033,1.033,1.032,1.032,1.032,1.032,1.032,1.031,1.031,1.031,1.03,1.03,1.028,1.028,1.028,1.028,1.027,1.027,1.026,1.026,1.026,1.028,1.028,1.029,1.029,1.029,1.03,1.031,1.031,1.032,1.034,0,0,0,0,1.102,1.102,1.102,1.107,1.107,1.106,1.104,1.104,1.103,1.102,1.102,1.102,1.102,1.101,1.101,1.101,1.102,1.102,1.102,1.103,1.106,1.107,1.107,1.113,1.113,1.113,1.114,1.116,1.116,1.119,1.119,1.119,1.119,1.12,1.12,1.12,1.121,1.121,1.121,1.12,1.12,1.12,1.119,1.118,1.118,1.118,1.115,1.115,1.114,1.112,1.112,1.11,1.109,1.109,1.108,1.108,1.109,1.11,1.11,1.11,1.115,1.115,1.139,1.161,0,1.234,1.234,1.234,1.254,1.266,1.268,1.268,1.268,1.268,1.268,1.268,1.268,1.268,1.268,1.268,1.268,1.268,1.27,1.271,1.271,1.273,1.274,1.274,1.276,1.279,1.279,1.279,1.277,1.277,1.276,1.273,1.273,1.27,1.266,1.266,1.262,1.26,1.26,1.256,1.256,1.254,1.254,1.254,1.256,1.256,1.256,1.259,1.259,1.259,1.259,1.259,1.259,1.259,1.26,1.26,1.26,1.26,1.26,1.26,1.263,1.266,1.266,1.266,1.27,1.273,1.273,1.274,0,0,0,0,0,0,1.035,1.034,1.034,1.034,1.033,1.033,1.033,1.032,1.032,1.032,1.032,1.033,1.033,1.035,1.037,1.04,1.04,1.041,1.041,1.04,1.038,1.038,1.037,1.036,1.036,1.035,1.033,1.032,1.032,1.03,1.028,1.028,1.028,1.027,1.027,1.027,1.027,1.027,1.027,1.026,1.026,1.026,1.026,1.024,1.024,1.024,1.022,1.022,1.021,1.019,1.019,1.018,1.016,1.016,1.015,1.013,1.013,1.011,1.011,1.011,1.011,1.011,1.012,1.013,1.013,1.013,1.013,1.013,1.013,1.014,1.014,1.014,1.013,1.013,1.01,1.008,1.008,1.005,1.005,1.006,1.004,1.004,1.006,1.006,3.604,3.604,3.579,3.579,3.579,3.566,3.566,3.566,3.566,3.554,3.554,3.554,3.554,3.542,3.542,3.542,3.542,3.542,3.529,3.529,3.529,3.529,3.529,3.529,3.529,3.517,3.517,3.529,3.517,3.505,3.505,3.482,3.458,3.458,3.447,3.424,3.424,3.424,3.412,3.401,3.401,3.379,3.379,3.379,3.367,3.367,3.367,3.356,3.335,3.335,3.313,3.302,3.302,3.292,3.271,3.25,3.25,3.23,3.22,3.22,3.2,3.18,3.18,3.16,3.141,3.141,3.122,3.112,3.112,3.094,3.084,3.084,3.066,3.066,3.057,3.057,3.057,3.048,3.048,3.048,3.048,3.048,3.048,3.057,3.057,3.048,3.048,3.048,3.048,3.048,3.048,3.048,3.048,3.048,3.048,3.048,3.048,3.048,3.039,3.03,3.021,3.021,2.994,2.968,2.968,2.951,2.926,2.926,2.893,2.869,2.869,2.837,2.806,2.806,2.776,2.761,2.761,2.732,2.71,2.71,2.682,2.654,2.654,2.627,2.607,2.607,2.574,2.549,2.549,2.524,2.499,2.499,2.475,2.457,2.457,2.44,2.422,2.422,2.411,2.405,2.405,2.4,2.394,2.394,2.394,2.389,2.389,2.389,2.389,2.389,2.389,2.389,2.389,2.389,2.389,2.389,2.383,2.383,2.377,2.367,2.367,2.356,2.334,2.334,2.318,2.298,2.298,2.277,2.257,2.257,2.238,2.223,2.223,2.209,2.199,2.199,2.195,2.19,2.19,2.19,2.19,2.19,2.19,2.19,2.195,2.195,2.195,2.199,2.204,2.204,2.204,2.204,2.199,2.195,2.195,2.195,2.19,2.185,2.185,2.185,2.181,2.181,2.176,2.176,2.176,2.171,2.167,2.167,2.167,2.162,2.158,2.158,2.153,2.153,2.153,2.149,2.14,2.14,2.135,2.131,2.131,2.122,2.118,2.118,2.109,2.096,2.088,2.083,2.067,2.067,2.046,2.034,2.022,2.022,2.006,1.994,1.994,1.987,1.983,1.983,1.979,1.979,1.979,1.979,1.979,1.987,1.987,1.994,2.002,2.006,2.006,2.018,2.026,2.026,2.034,2.042,2.046,2.042,2.034,2.034,2.026,2.01,2.01,1.994,1.979,1.979,1.96,1.949,1.949,1.934,1.92,1.92,1.913,1.902,1.902,1.895,1.885,1.885,1.871,1.861,1.861,1.851,1.844,1.844,1.837,1.834,1.834,1.831,1.828,1.828,1.831,1.828,1.824,1.824,1.821,1.821,1.821,1.815,1.811,1.811,1.808,1.805,1.805,1.799,1.792,1.786,1.786,1.777,1.771,1.771,1.765,1.759,1.759,1.753,1.747,1.747,1.741,1.735,1.735,1.726,1.72,1.72,1.715,1.709,1.709,1.706,1.7,1.7
0.728,0.728,0.729,0.731,0.731,0.733,0.733,0.733,0.733,0.734,0.734,0.735,0.735,0.736,0.736,0.736,0,0,0,0,0,0,0,0,0,0,0,0,0,0,0,0,1.003,1.003,1.005,1.005,1.006,1.008,1.007,1.006,1.006,1.006,1.005,1.005,1.005,1.005,1.005,1.006,1.006,1.007,1.008,1.008,1.01,1.012,1.013,1.013,1.015,1.016,1.016,1.018,1.019,1.019,1.022,1.025,1.027,1.027,1.03,1.031,1.031,1.032,1.033,1.034,1.034,1.034,1.034,1.034,1.033,1.033,1.032,1.032,1.032,1.032,1.032,1.032,1.032,1.031,1.03,1.03,1.029,1.029,1.029,1.028,1.028,1.028,1.027,1.027,1.027,1.029,1.029,1.03,1.03,1.03,1.032,1.033,1.033,1.034,1.037,0,0,0,0,1.102,1.102,1.102,1.107,1.107,1.106,1.104,1.104,1.103,1.102,1.102,1.102,1.102,1.102,1.102,1.102,1.102,1.103,1.103,1.104,1.106,0,0,1.114,1.114,1.114,1.115,1.118,1.118,1.119,1.12,1.12,1.12,1.12,1.121,1.121,1.121,1.121,1.121,1.121,1.121,1.12,1.119,1.119,1.119,1.118,1.115,1.115,1.114,1.113,1.113,1.112,1.11,1.11,1.109,1.109,1.109,1.11,1.11,1.112,1.115,1.115,1.14,1.161,0,1.234,1.234,1.234,1.254,1.266,1.268,1.268,1.268,1.268,1.268,1.268,1.268,1.268,1.27,1.268,1.268,1.268,1.27,1.271,1.271,1.274,1.276,1.276,1.277,1.279,1.279,1.279,1.277,1.277,1.276,1.274,1.274,1.27,1.266,1.266,1.263,1.26,1.26,1.257,1.257,1.256,1.256,1.256,1.257,1.257,1.257,1.26,1.26,1.26,1.26,1.26,1.26,1.26,1.26,1.262,1.262,1.262,1.262,1.262,1.263,1.266,1.266,1.268,1.27,1.273,1.273,1.274,0,0,0,0,0,0,0,0,0,0,0,0,0,0,0,0,0,0,0,0,0,0,1.041,1.041,1.041,1.04,1.038,1.038,1.037,1.036,1.036,1.035,1.033,1.032,1.032,1.03,1.028,1.028,1.028,1.027,1.027,1.027,1.027,1.027,1.027,1.026,1.026,1.026,1.026,1.025,1.025,1.024,1.023,1.023,1.021,1.02,1.02,1.018,1.017,1.017,1.015,1.014,1.014,1.012,1.011,1.011,1.011,1.011,1.012,1.014,1.013,1.013,1.013,1.013,1.013,1.014,1.014,1.014,1.013,1.013,1.01,1.008,1.008,1.005,1.005,1.006,1.004,1.004,3.616,3.616,3.591,3.591,3.579,3.579,3.579,3.566,3.566,3.566,3.554,3.554,3.554,3.554,3.554,3.542,3.542,3.542,3.542,3.542,3.542,3.542,3.542,3.542,3.542,3.542,3.542,3.542,3.542,3.542,3.542,3.517,3.517,3.493,3.47,3.47,3.447,3.435,3.435,3.424,3.412,3.39,3.39,3.379,3.379,3.379,3.379,3.367,3.367,3.367,3.345,3.345,3.324,3.313,3.313,3.302,3.271,3.25,3.25,3.23,3.22,3.22,3.2,3.18,3.18,3.16,3.141,3.141,3.122,3.103,3.103,3.094,3.084,3.084,3.066,3.066,3.057,3.057,3.057,3.048,3.048,3.048,3.057,3.057,3.057,3.057,3.057,3.057,3.057,3.057,3.057,3.057,3.057,3.057,3.057,3.057,3.057,3.048,3.048,3.048,3.039,3.03,3.021,3.021,2.994,2.977,2.977,2.951,2.926,2.926,2.901,2.877,2.877,2.853,2.822,2.822,2.799,2.783,2.783,2.761,2.732,2.732,2.71,2.682,2.682,2.654,2.627,2.627,2.594,2.555,2.555,2.53,2.499,2.499,2.469,2.451,2.451,2.434,2.417,2.417,2.405,2.394,2.394,2.389,2.389,2.389,2.389,2.389,2.383,2.383,2.383,2.383,2.383,2.383,2.383,2.389,2.389,2.389,2.383,2.383,2.377,2.367,2.367,2.356,2.34,2.34,2.324,2.308,2.308,2.287,2.267,2.267,2.247,2.233,2.233,2.223,2.209,2.209,2.204,2.199,2.199,2.199,2.199,2.199,2.199,2.199,2.199,2.199,2.199,2.204,2.204,2.204,2.204,2.204,2.204,2.199,2.195,2.195,2.195,2.19,2.19,2.185,2.181,2.181,2.176,2.176,2.176,2.171,2.167,2.167,2.167,2.162,2.158,2.158,2.153,2.153,2.153,2.149,2.14,2.14,2.131,2.126,2.126,2.122,2.113,2.113,2.109,2.096,2.096,2.083,2.062,2.062,2.046,2.03,2.022,2.014,2.002,1.99,1.99,1.979,1.975,1.975,1.971,1.971,1.971,1.971,1.971,1.975,1.975,1.983,1.987,1.998,1.998,2.006,2.018,2.018,2.026,2.034,2.034,2.034,2.022,2.022,2.014,1.994,1.994,1.979,1.968,1.968,1.949,1.938,1.938,1.927,1.916,1.916,1.909,1.902,1.902,1.891,1.885,1.885,1.871,1.861,1.861,1.851,1.844,1.844,1.837,1.834,1.834,1.831,1.828,1.828,1.831,1.828,1.824,1.824,1.821,1.818,1.818,1.815,1.811,1.811,1.808,1.805,1.805,1.799,1.792,1.789,1.789,1.78,1.771,1.771,1.765,1.759,1.759,1.753,1.744,1.744,1.738,1.732,1.732,1.723,1.718,1.718,1.712,1.709,1.709,1.703,1.698,1.698
0.728,0.728,0.729,0.731,0.731,0.733,0.733,0.733,0.733,0.734,0.734,0.735,0.735,0.736,0.736,0.736,0.737,0.736,0.736,0,0,0,0,0,0,0,0,0,0,0.99,0.99,0.99,0.992,0.993,0.993,0.996,0.998,0.999,0.999,0.999,0.999,0.999,0.999,0.999,0.999,0.999,1,1.002,1.002,1.003,1.005,1.005,1.008,1.01,1.012,1.012,1.014,1.016,1.016,1.018,1.019,1.019,1.022,1.024,1.027,1.027,1.03,1.031,1.031,1.032,1.032,1.034,1.033,1.033,1.034,1.034,1.033,1.033,1.032,1.032,1.032,1.032,1.032,1.031,1.031,1.03,1.03,1.03,1.029,1.028,1.028,1.027,1.027,1.027,1.027,1.027,1.027,1.028,1.028,1.029,1.03,1.03,1.031,1.032,1.032,1.034,1.037,0,0,0,0,1.102,1.102,1.102,1.107,1.107,1.103,1.103,1.103,1.102,1.102,1.102,1.102,1.102,1.102,1.102,1.102,1.102,1.103,1.103,1.104,1.106,1.112,1.112,1.114,1.114,1.114,1.115,1.118,1.118,1.119,1.12,1.12,1.12,1.12,1.121,1.121,1.121,1.121,1.121,1.121,1.121,1.12,1.119,1.119,1.119,1.118,1.115,1.115,1.114,1.113,1.113,1.112,1.11,1.11,1.109,1.109,1.109,1.11,1.11,1.112,1.115,1.115,1.132,1.148,0,1.234,1.234,1.234,1.246,1.263,1.268,1.268,1.268,1.268,1.268,1.268,1.268,1.268,1.268,1.268,1.268,1.268,1.27,1.27,1.27,1.273,1.276,1.276,1.276,1.277,1.277,1.277,1.277,1.277,1.274,1.273,1.273,1.268,1.265,1.265,1.262,1.259,1.259,1.257,1.257,1.256,1.256,1.256,1.257,1.257,1.257,1.26,1.26,1.26,1.26,1.26,1.26,1.26,1.26,1.262,1.262,1.262,1.262,1.262,1.263,1.266,1.266,1.268,1.27,1.273,1.273,1.274,1.279,1.279,0,0,0,0,0,0,0,0,0,0,0,0,0,0,0,0,0,0,0,0,1.041,1.041,1.041,1.04,1.038,1.038,1.037,1.036,1.036,1.035,1.033,1.032,1.032,1.03,1.028,1.028,1.028,1.027,1.027,1.027,1.027,1.027,1.027,1.026,1.026,1.026,1.026,1.025,1.025,1.024,1.023,1.023,1.021,1.02,1.02,1.018,1.017,1.017,1.015,1.014,1.014,1.012,1.011,1.011,1.011,1.011,1.012,1.013,1.013,1.012,1.012,1.012,1.012,1.014,1.012,1.011,1.009,1.009,1.007,1.005,1.005,1.002,1.001,1.001,1,0.997,0.997,0.997,3.591,3.591,3.579,3.579,3.579,3.566,3.566,3.566,3.554,3.554,3.554,3.554,3.554,3.554,3.554,3.554,3.554,3.554,3.554,3.566,3.566,3.566,3.566,3.566,3.566,3.554,3.554,3.554,3.554,3.529,3.529,3.505,3.482,3.482,3.447,3.435,3.435,3.424,3.412,3.39,3.39,3.379,3.379,3.379,3.379,3.367,3.367,3.367,3.356,3.356,3.335,3.313,3.313,3.302,3.271,3.261,3.261,3.23,3.22,3.22,3.2,3.18,3.18,3.16,3.151,3.151,3.122,3.103,3.103,3.094,3.084,3.084,3.075,3.066,3.066,3.066,3.057,3.057,3.057,3.057,3.057,3.057,3.057,3.066,3.066,3.066,3.066,3.066,3.066,3.057,3.057,3.057,3.057,3.057,3.057,3.048,3.048,3.048,3.039,3.03,3.021,3.021,2.994,2.977,2.977,2.951,2.926,2.926,2.91,2.885,2.885,2.861,2.837,2.837,2.822,2.806,2.806,2.783,2.761,2.761,2.739,2.71,2.71,2.675,2.647,2.647,2.607,2.568,2.568,2.536,2.505,2.505,2.469,2.451,2.451,2.434,2.417,2.417,2.405,2.394,2.394,2.389,2.389,2.389,2.389,2.389,2.383,2.383,2.383,2.383,2.383,2.383,2.383,2.389,2.389,2.389,2.383,2.383,2.377,2.367,2.367,2.361,2.345,2.345,2.329,2.313,2.313,2.298,2.277,2.277,2.262,2.247,2.247,2.238,2.223,2.223,2.214,2.209,2.209,2.209,2.204,2.204,2.204,2.204,2.204,2.204,2.204,2.209,2.209,2.209,2.209,2.209,2.209,2.204,2.199,2.199,2.195,2.195,2.195,2.19,2.181,2.181,2.181,2.176,2.176,2.171,2.167,2.167,2.167,2.162,2.158,2.158,2.153,2.153,2.153,2.149,2.14,2.14,2.131,2.126,2.126,2.122,2.113,2.113,2.109,2.096,2.096,2.083,2.062,2.062,2.046,2.03,2.03,2.014,2.002,1.99,1.99,1.979,1.975,1.975,1.971,1.971,1.971,1.971,1.971,1.975,1.975,1.983,1.987,1.998,1.998,2.006,2.018,2.018,2.026,2.034,2.034,2.034,2.022,2.022,2.014,1.994,1.994,1.979,1.968,1.968,1.949,1.938,1.938,1.927,1.916,1.916,1.909,1.902,1.902,1.891,1.885,1.885,1.874,1.864,1.864,1.857,1.851,1.851,1.841,1.837,1.837,1.834,1.834,1.831,1.831,1.828,1.824,1.824,1.821,1.818,1.818,1.815,1.811,1.811,1.808,1.805,1.805,1.799,1.792,1.789,1.789,1.78,1.774,1.774,1.765,1.759,1.759,1.753,1.744,1.744,1.738,1.732,1.732,1.723,1.718,1.718,1.712,1.709,1.709,1.703,1.698,1.698
