0,0,0,0,0,0,0,0,0,0,0,0,0,0,0,0,0,0,0,0,0,0,0,0,0,0,0,0,0,0,0,0,0,0,0,0,0,0,0,0,0,2.428,2.428,2.428,2.428,2.417,2.411,2.411,2.4,2.383,2.383,2.367,2.345,2.345,2.324,2.308,2.308,2.298,2.287,2.287,2.272,2.272,0,0,0,0,0,0,0,0,0,0,0,0,0,0,0,0,0,0,0,0,0,0,0,0,0,0,0,0,0,0,0,0,0,0,0,0,0,0,0,0,0,0,3.19,3.18,3.18,3.18,3.2,3.2,3.19,3.19,3.19,3.19,3.19,3.2,3.22,3.22,3.25,3.25,3.25,3.281,3.313,3.313,3.313,3.335,3.356,3.356,3.367,3.379,3.379,3.39,3.424,3.424,3.424,3.424,3.424,3.401,3.39,3.39,3.367,3.356,3.356,3.335,3.313,3.313,3.292,3.271,3.25,3.25,3.25,3.25,3.25,3.25,3.24,3.24,3.23,3.21,3.21,3.21,3.19,3.19,3.18,3.16,3.141,3.141,3.122,3.094,3.094,3.066,3.048,3.048,3.039,3.03,3.03,3.021,3.012,3.012,3.012,3.012,3.012,3.021,3.021,3.03,3.039,3.039,3.048,3.066,3.066,3.084,3.094,3.094,3.094,3.094,3.103,3.103,3.103,3.103,3.103,0,0,0,0,0,0,0,0,0,0,0,0,0,0,0,0,0,0,0,0,0,0,0,0,0,0,0,0,0,0,0,0,0,0,0,0,0,0,0,0,0,0,0,0,0,0,0,0,0,0,0,0,0,0,0,0,0,0,0,0,0,0,0,0,0,0,0,0,0,0,0,0,0,0,0,0,0,0.826,0.825,0.825,0.824,0.824,0.824,0.824,0.822,0.822,0.822,0.822,0.822,0.822,0.822,0.822,0.823,0.823,0.824,0.824,0.824,0.826,0.827,0.829,0.829,0.831,0.832,0.832,0.833,0.834,0.834,0.835,0.836,0.837,0.837,0.838,0.838,0.838,0.838,0.839,0.84,0.84,0.843,0.845,0.845,0.847,0.85,0.854,0.854,0.858,0.862,0.862,0.866,0.869,0.87,0.87,0.872,0.872,0.872,0.868,0.868,0.864,0.858,0.858,0.858,0.846,0.846,0.84,0.836,0.836,0.832,0.831,0.831,0.83,0.83,0.83,0.828,0.827,0.827,0.827,0.826,0.826,0.826,0.824,0.822,0.822,0.821,0.82,0.82,0.82,0.82,0.82,0.82,0.82,0.82,0.819,0.818,0.818,0.818,0.818,0.817,0.817,0.816,0.816,0.816,0.815,0.814,0.814,0.813,0.813,0.813,0.812,0.811,0.81,0.81,0.809,0.809,0.809,0.809,0.808,0.808,0.807,0.806,0.806,0.806,0.806,0.806,0.805,0.805,0.805,0.806,0.806,0.806,0.807,0.807,0.811,0.817,0.823,0.823,0.831,0,0,0,0.866,0.866,0.873,0.875,0.875,0.876,0.878,0.878,0.879,0.88,0.88,0.88,0.88,0.88,0.88,0.879,0.879,0.878,0.875,0.875,0.871,0.868,0.868,0.866,0.865,0.865,0.865,0.862,0.862,0.861,0.859,0.859,0.859,0.857,0.854,0.854,0.852,0.847,0.847,0.844,0.841,0.841,0.838,0.836,0.836,0.834,0.832,0.832,0.831,0.83,0.83,0.83,0.829,0.829,0.829,0.83,0.83,0.831,0.831,0.832,0.832,0.832,0.834,0.834,0.834,0.835,0.834,0.834,0.834,0.834,0.834,0.834,0,0,0,0,0,0,0,0,0,0,0,0,0,0,0,0,0,0,1.375,1.375,1.362,1.362,1.369,1.369,1.371,1.371,1.369,1.369,1.369,1.369,1.368,1.368,1.369,1.369,0,0,0,0,0,0,0,0,0,0,0,0,0,0,0,1.181,1.181,1.182,1.182,1.182,1.182,1.182,1.179,1.175,1.175,1.172,1.168,1.168,1.164,1.158,1.158,1.153,1.148,1.148,1.141,1.136,1.136,1.127,1.127,1.127,1.102,1.102,0,0,1.027,1.008,1,0.993,0.993,0.99,0.989,0.989,0.988,0.985,0.983,0.983,0.981,0.98,0.98,0.978,0.975,0.975,0.972,0.971,0.971,0.968,0.966,0.966,0.963,0.96,0.96,0.958,0.955,0.955,0.952,0.949,0.949,0.948,0.946,0.946,0.945,0.944,0.944,0.944,0.944,0.943,0.943,0.943,0.944,0.945,0.945,0.946,0.947,0.947,0.947,0.948,0.949,0.949,0.949,0.95,0.95,0.95,0.95,0.95,0.949,0.947,0.947,0.947,0.946,0.946,0.945,0.943,0.943,0.942,0.941,0.941,0.94,0.938,0.938,0.938,0.937,0.937,0.938,0.938,0.938,0.939,0.939,0.941,0.943,0.943,0.946,0.947,0.95,0.95,0.954,0.957,0.957,0.96,0.962,0.963,0.963,0.965,0.966,0.965,0.964,0.964,0.964,0.963,0.963,0.963,0.963,0.963,0.963,0.962,0.961,0.961,0.961,0.961,0.962,0.963,0.963,0.963,0.965,0.965,0.966,0.968,0.968,0.969,0.975,0,0,0,0,0,0,0,0,0,0
0,0,0,0,0,0,0,0,0,0,0,0,0,0,0,0,0,0,0,0,0,0,0,0,0,0,0,0,0,0,0,0,0,0,0,0,0,0,0,0,0,2.417,2.417,2.411,2.411,2.411,2.405,2.405,2.394,2.372,2.372,2.35,2.334,2.334,2.318,2.303,2.303,2.287,2.287,2.287,2.272,2.272,0,0,0,0,0,0,0,0,0,0,0,0,0,0,0,0,0,0,0,0,0,0,0,0,0,0,0,0,0,0,0,0,0,0,0,0,0,0,0,3.2,3.2,3.2,3.19,3.151,3.151,3.151,3.16,3.16,3.16,3.17,3.17,3.17,3.19,3.19,3.22,3.22,3.24,3.25,3.25,3.281,3.313,3.313,3.313,3.335,3.356,3.356,3.379,3.379,3.379,3.412,3.435,3.447,3.447,3.435,3.435,3.412,3.401,3.401,3.379,3.367,3.367,3.356,3.335,3.335,3.313,3.292,3.281,3.281,3.271,3.271,3.281,3.271,3.271,3.271,3.25,3.24,3.24,3.23,3.22,3.22,3.19,3.17,3.151,3.151,3.122,3.094,3.094,3.066,3.048,3.048,3.039,3.03,3.03,3.021,3.012,3.012,3.012,3.012,3.012,3.021,3.021,3.03,3.039,3.039,3.048,3.066,3.066,3.084,3.094,3.094,3.094,3.094,3.103,3.103,3.103,3.103,3.103,0,0,0,0,0,0,0,0,0,0,0,0,0,0,0,0,0,0,0,0,0,0,0,0,0,0,0,0,0,0,0,0,0,0,0,0,0,0,0,0,0,0,0,0,0,0,0,0,0,0,0,0,0,0,0,0,0,0,0,0,0,0,0,0,0,0,0,0,0,0,0,0,0,0,0,0,0,0.826,0.825,0.825,0.824,0.823,0.823,0.822,0.822,0.822,0.821,0.821,0.821,0.821,0.822,0.822,0.823,0.823,0.824,0.824,0.824,0.826,0.827,0.829,0.829,0.831,0.832,0.832,0.833,0.834,0.834,0.835,0.836,0.837,0.837,0.838,0.838,0.838,0.838,0.839,0.84,0.84,0.843,0.845,0.845,0.847,0.85,0.854,0.854,0.858,0.862,0.862,0.866,0.868,0.87,0.87,0.872,0.872,0.872,0.868,0.868,0.864,0.858,0.858,0.854,0.846,0.846,0.84,0.836,0.836,0.832,0.831,0.831,0.83,0.83,0.83,0.828,0.827,0.827,0.827,0.826,0.826,0.826,0.824,0.822,0.822,0.821,0.82,0.82,0.82,0.82,0.82,0.82,0.82,0.82,0.819,0.818,0.818,0.818,0.818,0.817,0.817,0.816,0.816,0.816,0.815,0.814,0.814,0.813,0.813,0.813,0.812,0.811,0.81,0.81,0.809,0.809,0.809,0.809,0.808,0.808,0.807,0.806,0.806,0.805,0.804,0.804,0.804,0.803,0.802,0.802,0.802,0.803,0.803,0.803,0.806,0.811,0.811,0.817,0.825,0.836,0,0,0.865,0.865,0.871,0.874,0.874,0.876,0.878,0.878,0.879,0.88,0.88,0.88,0.88,0.88,0.88,0.879,0.879,0.877,0.874,0.874,0.87,0.867,0.867,0.865,0.864,0.864,0.863,0.861,0.861,0.859,0.858,0.857,0.857,0.854,0.853,0.853,0.85,0.847,0.847,0.844,0.841,0.841,0.838,0.836,0.836,0.834,0.832,0.832,0.831,0.83,0.83,0.83,0.829,0.829,0.829,0.83,0.83,0.831,0.831,0.831,0.832,0.832,0.832,0.833,0.833,0.834,0.834,0.834,0.833,0.832,0.832,0.832,0.832,0,0,0,0,0,0,0,0,0,0,0,0,0,0,0,0,0,1.375,1.375,1.373,1.373,1.373,1.371,1.371,1.371,1.369,1.369,1.369,1.369,1.368,1.368,1.369,1.369,0,0,0,0,0,0,0,0,0,0,0,0,0,0,0,1.181,1.181,1.182,1.182,1.185,1.186,1.186,1.185,1.182,1.182,1.181,1.178,1.178,1.178,1.168,1.168,1.163,1.161,1.161,1.155,1.15,1.15,1.141,1.127,1.127,1.102,1.102,0,0,0,0,1,0.993,0.993,0.99,0.989,0.989,0.988,0.985,0.983,0.983,0.981,0.98,0.98,0.978,0.975,0.975,0.972,0.971,0.971,0.968,0.966,0.966,0.963,0.96,0.96,0.958,0.955,0.955,0.952,0.949,0.949,0.948,0.946,0.946,0.945,0.944,0.944,0.944,0.944,0.943,0.943,0.943,0.944,0.945,0.945,0.946,0.947,0.947,0.947,0.948,0.949,0.949,0.949,0.95,0.95,0.95,0.95,0.95,0.949,0.947,0.947,0.947,0.946,0.946,0.945,0.943,0.943,0.942,0.941,0.941,0.94,0.938,0.938,0.938,0.937,0.937,0.938,0.938,0.938,0.939,0.939,0.941,0.943,0.943,0.946,0.947,0.95,0.95,0.954,0.957,0.957,0.96,0.962,0.963,0.963,0.965,0.966,0.966,0.965,0.964,0.964,0.963,0.963,0.963,0.963,0.963,0.963,0.962,0.961,0.961,0.961,0.961,0.962,0.963,0.963,0.963,0.965,0.965,0.966,0.968,0.968,0.969,0,0,0,0,0,0,0,0,0,0,0
0,0,0,0,0,0,0,0,0,0,0,0,0,0,0,0,0,0,0,0,0,0,0,0,0,0,0,0,0,0,0,0,0,0,0,0,0,0,0,0,0,2.417,2.417,2.411,2.411,2.411,2.405,2.405,2.394,2.372,2.372,2.35,2.334,2.334,2.318,2.303,2.303,2.287,2.287,0,0,0,0,0,0,0,0,0,0,0,0,0,0,0,0,0,0,0,0,0,0,0,0,0,0,0,0,0,0,0,0,0,0,0,0,0,0,0,0,0,0,3.2,3.2,3.2,0,3.151,3.151,3.151,3.16,3.16,3.16,3.17,3.17,3.17,3.19,3.19,3.22,3.22,3.23,3.25,3.25,0,3.313,3.313,3.313,3.335,3.356,3.356,3.379,3.379,3.379,3.412,3.435,3.447,3.447,3.435,3.435,3.412,3.401,3.401,3.379,3.367,3.367,3.356,3.335,3.335,3.313,3.292,3.281,3.281,3.271,3.271,3.281,3.271,3.271,3.271,3.25,3.24,3.24,3.23,3.22,3.2,3.19,3.17,3.151,3.151,3.122,3.094,3.094,3.066,3.048,3.048,3.039,3.03,3.03,3.021,3.012,3.012,3.012,3.012,3.012,3.021,3.021,3.021,3.03,3.03,3.039,3.048,3.048,3.057,3.057,3.066,3.066,3.066,3.066,3.066,3.103,3.103,3.103,0,0,0,0,0,0,0,0,0,0,0,0,0,0,0,0,0,0,0,0,0,0,0,0,0,0,0,0,0,0,0,0,0,0,0,0,0,0,0,0,0,0,0,0,0,0,0,0,0,0,0,0,0,0,0,0,0,0,0,0,0,0,0,0,0,0,0,0,0,0,0,0,0,0,0,0,0,0,0,0,0.824,0.823,0.823,0.822,0.821,0.821,0.82,0.819,0.819,0.819,0.82,0.821,0.822,0.822,0.823,0.824,0.824,0.826,0.828,0.83,0.83,0.832,0.833,0.833,0.834,0.835,0.835,0.836,0.837,0.838,0.838,0.838,0.838,0.838,0.839,0.84,0.841,0.841,0.843,0.845,0.845,0.847,0.85,0.854,0.854,0.858,0.862,0.862,0.866,0.868,0.87,0.87,0.871,0.872,0.872,0.87,0.87,0.866,0.86,0.86,0.854,0.848,0.848,0.848,0.838,0.838,0.834,0.832,0.832,0.831,0.83,0.83,0.829,0.828,0.828,0.828,0.827,0.826,0.826,0.824,0.823,0.823,0.822,0.821,0.821,0.821,0.82,0.82,0.82,0.82,0.82,0.82,0.819,0.819,0.819,0.818,0.818,0.818,0.817,0.816,0.816,0.815,0.814,0.814,0.814,0.813,0.813,0.813,0.811,0.811,0.811,0.81,0.809,0.809,0.809,0.808,0.808,0.807,0.805,0.805,0.804,0.804,0.804,0.803,0.802,0.802,0.802,0.801,0.801,0.802,0.802,0.805,0.809,0.809,0.815,0.822,0.834,0.845,0.845,0.856,0.864,0.871,0.874,0.874,0.876,0.879,0.879,0.88,0.881,0.881,0.881,0.881,0.881,0.88,0.879,0.879,0.876,0.874,0.874,0.87,0.867,0.867,0.865,0.864,0.864,0.862,0.86,0.86,0.859,0.857,0.856,0.856,0.854,0.852,0.852,0.85,0.847,0.847,0.844,0.841,0.841,0.838,0.836,0.836,0.835,0.833,0.833,0.832,0.831,0.831,0.83,0.83,0.83,0.83,0.83,0.83,0.83,0.83,0.83,0.831,0.831,0.832,0.833,0.833,0.833,0.833,0.833,0.832,0.832,0.832,0.832,0.832,0,0,0,0,0,0,0,0,0,0,0,0,0,0,0,0,1.36,1.36,1.364,1.364,1.364,1.364,1.364,1.364,1.364,1.364,1.362,1.362,1.364,1.364,1.364,1.366,1.366,1.366,1.368,1.368,0,0,0,0,0,0,0,1.24,1.24,1.2,1.181,1.181,1.181,1.181,1.182,1.182,1.185,1.186,1.186,1.185,1.182,1.182,1.181,1.178,1.178,1.178,1.168,1.168,1.163,1.161,1.161,1.155,1.15,1.15,1.141,1.127,1.127,1.102,1.102,1.083,1.083,0,0,1,0.99,0.99,0.988,0.986,0.986,0.982,0.98,0.98,0.978,0.976,0.975,0.975,0.973,0.97,0.97,0.967,0.965,0.965,0.963,0.961,0.961,0.958,0.955,0.955,0.953,0.949,0.949,0.947,0.944,0.944,0.943,0.941,0.941,0.941,0.94,0.94,0.94,0.94,0.94,0.94,0.94,0.941,0.941,0.941,0.942,0.943,0.943,0.945,0.946,0.947,0.947,0.947,0.947,0.947,0.947,0.947,0.947,0.947,0.945,0.945,0.944,0.943,0.943,0.942,0.941,0.941,0.94,0.938,0.938,0.935,0.935,0.935,0.934,0.933,0.933,0.933,0.933,0.933,0.934,0.934,0.936,0.938,0.938,0.941,0.942,0.945,0.945,0.949,0.952,0.952,0.955,0.958,0.96,0.96,0.962,0.964,0.964,0.964,0.964,0.964,0.963,0.963,0.963,0.963,0.962,0.962,0.962,0.961,0.961,0.96,0.96,0.96,0.96,0.96,0.963,0.965,0.965,0.966,0.968,0.968,0.969,0,0,0,0,0,0,0,0,0,0,0
0,0,0,0,0,0,0,0,0,0,0,0,0,0,0,0,0,0,0,0,0,0,0,0,0,0,0,0,0,0,0,0,0,0,0,0,0,0,0,0,0,0,0,0,0,0,0,0,0,2.383,2.383,2.383,0,0,0,0,0,0,0,0,0,0,0,0,0,0,0,0,0,0,0,0,0,0,0,0,0,0,0,0,0,0,0,0,0,0,0,0,0,0,0,0,0,0,0,0,0,0,0,0,0,0,0,0,0,0,3.084,3.084,3.112,3.131,3.131,3.141,3.151,3.151,3.17,0,0,3.23,3.23,3.25,3.25,0,3.324,3.324,3.324,3.345,3.356,3.356,3.379,3.39,3.39,3.412,3.447,3.458,3.458,3.447,3.447,3.435,3.412,3.412,3.401,3.379,3.379,3.367,3.345,3.345,3.324,3.313,3.302,3.302,3.302,3.302,3.302,3.302,3.292,3.292,3.281,3.261,3.261,3.24,3.23,3.2,3.2,3.18,3.151,3.151,3.122,3.094,3.094,3.066,3.048,3.048,3.039,3.03,3.03,3.021,3.012,3.012,3.012,3.012,3.012,3.021,3.021,3.021,3.021,3.021,3.021,3.03,3.03,3.039,3.039,3.039,3.039,3.03,3.03,3.03,0,0,0,0,0,0,0,0,0,0,0,0,0,0,0,0,0,0,0,0,0,0,0,0,0,0,0,0,0,0,0,0,0,0,0,0,0,0,0,0,0,0,0,0,0,0,0,0,0,0,0,0,0,0,0,0,0,0,0,0,0,0,0,0,0,0,0,0,0,0,0,0,0,0,0,0,0,0,0,0,0,0,0,0,0,0,0,0.821,0.821,0.82,0.819,0.819,0.819,0.82,0.82,0.822,0.822,0.823,0.824,0.824,0.827,0.828,0.831,0.831,0.833,0.834,0.834,0.836,0.836,0.838,0.838,0.838,0.838,0.838,0.838,0.839,0.839,0.839,0.84,0.841,0.841,0.843,0.846,0.846,0.847,0.85,0.854,0.854,0.858,0.862,0.862,0.865,0.867,0.868,0.868,0.87,0.871,0.871,0.87,0.87,0.867,0.862,0.862,0.857,0.851,0.851,0.851,0.839,0.839,0.836,0.834,0.834,0.832,0.832,0.832,0.83,0.829,0.829,0.828,0.828,0.826,0.826,0.824,0.823,0.823,0.822,0.822,0.822,0.822,0.821,0.821,0.821,0.821,0.821,0.82,0.82,0.82,0.82,0.819,0.818,0.818,0.818,0.816,0.816,0.816,0.815,0.815,0.814,0.814,0.814,0.813,0.812,0.811,0.811,0.811,0.809,0.809,0.809,0.808,0.808,0.807,0.805,0.805,0.804,0.804,0.804,0.802,0.802,0.802,0.801,0.801,0.801,0.801,0.801,0.804,0.809,0.809,0.815,0.822,0.833,0.845,0.845,0.856,0.864,0.871,0.876,0.876,0.878,0.881,0.881,0.882,0.882,0.882,0.882,0.882,0.882,0.881,0.879,0.879,0.876,0.874,0.874,0.87,0.867,0.867,0.865,0.864,0.864,0.862,0.86,0.86,0.859,0.857,0.856,0.856,0.854,0.852,0.852,0.85,0.847,0.847,0.845,0.842,0.842,0.84,0.838,0.838,0.836,0.834,0.834,0.833,0.832,0.832,0.831,0.83,0.83,0.83,0.83,0.83,0.83,0.83,0.83,0.831,0.831,0.832,0.832,0.832,0.832,0.833,0.832,0.832,0.832,0.832,0.832,0.832,0,0,0,0,0,0,0,0,0,0,0,0,0,0,0,0,1.339,1.339,1.339,1.344,1.348,1.351,1.351,1.353,1.355,1.353,1.353,1.357,1.357,1.357,1.357,1.359,1.359,1.359,1.36,1.36,1.351,1.351,1.351,0,0,0,0,1.24,1.24,1.2,1.181,1.181,1.181,1.182,1.186,1.186,1.189,1.19,1.19,1.19,1.189,1.189,1.189,1.185,1.185,1.183,1.179,1.179,1.175,1.171,1.171,1.168,1.164,1.164,1.154,1.141,1.141,1.141,0,1.083,1.083,0,0,0,0.986,0.986,0.983,0.983,0.986,0.977,0.976,0.976,0.974,0.972,0.972,0.971,0.968,0.966,0.966,0.963,0.962,0.962,0.959,0.957,0.957,0.954,0.951,0.951,0.948,0.945,0.945,0.942,0.94,0.94,0.939,0.937,0.937,0.937,0.936,0.936,0.936,0.936,0.936,0.936,0.936,0.937,0.938,0.938,0.939,0.941,0.941,0.942,0.943,0.944,0.944,0.944,0.945,0.945,0.945,0.945,0.945,0.944,0.944,0.942,0.942,0.941,0.941,0.94,0.938,0.938,0.936,0.935,0.935,0.932,0.931,0.931,0.93,0.929,0.929,0.929,0.929,0.929,0.929,0.929,0.931,0.934,0.934,0.935,0.938,0.941,0.941,0.944,0.947,0.947,0.949,0.953,0.955,0.955,0.958,0.96,0.96,0.962,0.963,0.963,0.963,0.963,0.963,0.963,0.962,0.962,0.96,0.959,0.959,0.958,0.958,0.96,0.96,0.96,0,0,0,0,0,0,0,0,0,0,0,0,0,0,0,0,0,0
0,0,0,0,0,0,0,0,0,0,0,0,0,0,0,0,0,0,0,0,0,0,0,0,0,0,0,0,0,0,0,0,0,0,0,0,0,0,0,0,0,0,0,0,0,0,0,0,0,2.383,2.383,2.383,0,0,0,0,0,0,0,0,0,0,0,0,0,0,0,0,0,0,0,0,0,0,0,0,0,0,0,0,0,0,0,0,0,0,0,0,0,0,0,0,0,0,0,0,0,0,0,0,0,0,0,0,0,0,3.084,3.084,3.112,3.131,3.131,3.141,3.151,3.151,3.17,0,0,3.23,3.23,3.25,3.25,0,3.324,3.324,3.324,3.345,3.367,3.367,3.39,3.401,3.401,3.424,3.458,3.47,3.47,3.458,3.458,3.447,3.424,3.424,3.412,3.401,3.401,3.39,3.367,3.356,3.356,3.345,3.335,3.335,3.324,3.324,3.324,3.324,3.324,3.324,3.302,3.281,3.281,3.261,3.24,3.21,3.21,3.19,3.16,3.16,3.122,3.094,3.094,3.066,3.048,3.048,3.039,3.03,3.03,3.03,3.021,3.021,3.012,3.012,3.012,3.021,3.021,3.021,3.021,3.021,3.021,3.03,3.03,3.039,3.039,3.039,3.039,3.03,3.03,3.03,0,0,0,0,0,0,0,0,0,0,0,0,0,0,0,0,0,0,0,0,0,0,0,0,0,0,0,0,0,0,0,0,0,0,0,0,0,0,0,0,0,0,0,0,0,0,0,0,0,0,0,0,0,0,0,0,0,0,0,0,0,0,0,0,0,0,0,0,0,0,0,0,0,0,0,0,0,0,0,0,0,0,0,0,0,0,0,0,0,0.819,0.818,0.818,0.818,0.82,0.82,0.823,0.823,0.825,0.828,0.828,0.83,0.833,0.835,0.835,0.837,0.838,0.838,0.839,0.838,0.838,0.838,0.838,0.838,0.838,0.838,0.839,0.839,0.839,0.84,0.842,0.842,0.843,0.846,0.846,0.847,0.85,0.854,0.854,0.858,0.862,0.862,0.865,0.867,0.868,0.868,0.87,0.871,0.871,0.87,0.87,0.867,0.862,0.862,0.858,0.852,0.852,0.852,0.841,0.841,0.838,0.835,0.835,0.834,0.833,0.833,0.831,0.829,0.829,0.828,0.828,0.827,0.827,0.825,0.824,0.824,0.823,0.822,0.822,0.822,0.822,0.822,0.822,0.822,0.822,0.821,0.82,0.82,0.82,0.819,0.818,0.818,0.818,0.817,0.817,0.816,0.816,0.816,0.815,0.814,0.814,0.814,0.813,0.812,0.812,0.811,0.81,0.81,0.809,0.808,0.808,0.807,0.805,0.805,0.804,0.804,0.804,0.802,0.802,0.802,0.801,0.801,0.801,0.801,0.801,0.804,0.81,0.81,0.815,0.822,0.833,0.845,0.845,0.856,0.865,0.873,0.877,0.877,0.879,0.883,0.883,0.885,0.884,0.884,0.883,0.882,0.882,0.882,0.88,0.88,0.877,0.875,0.875,0.871,0.868,0.868,0.865,0.864,0.864,0.863,0.861,0.861,0.859,0.857,0.856,0.856,0.854,0.853,0.853,0.851,0.848,0.848,0.845,0.843,0.843,0.841,0.839,0.839,0.837,0.835,0.835,0.834,0.832,0.832,0.832,0.831,0.831,0.831,0.831,0.831,0.831,0.831,0.832,0.832,0.832,0.832,0.832,0.832,0.832,0.833,0.832,0.832,0.832,0.832,0.832,0.832,0,0,0,0,0,0,0,0,0,0,0,0,0,0,0,0,1.339,1.339,1.339,1.344,1.348,1.351,1.351,1.353,1.355,1.353,1.353,1.357,1.357,1.357,1.357,1.359,1.359,1.359,1.36,1.36,1.351,1.351,1.351,0,0,0,0,0,0,0,0,0,1.196,1.196,1.197,1.198,1.198,1.198,1.2,1.198,1.196,1.196,1.194,1.193,1.193,1.191,1.189,1.189,1.185,1.182,1.179,1.179,1.176,1.176,0,0,0,0,0,0,0,0,0,0,0.986,0.986,0.983,0.983,0,0.977,0.976,0.976,0.974,0.972,0.972,0.971,0.968,0.966,0.966,0.963,0.962,0.962,0.959,0.957,0.957,0.954,0.951,0.951,0.948,0.945,0.945,0.942,0.94,0.94,0.939,0.937,0.937,0.937,0.936,0.936,0.936,0.936,0.936,0.936,0.936,0.937,0.938,0.938,0.939,0.941,0.941,0.942,0.943,0.944,0.944,0.944,0.945,0.945,0.945,0.945,0.945,0.944,0.944,0.942,0.942,0.941,0.941,0.94,0.938,0.938,0.936,0.935,0.935,0.932,0.931,0.931,0.93,0.929,0.929,0.929,0.929,0.929,0.929,0.929,0.931,0.934,0.934,0.935,0.938,0.941,0.941,0.944,0.947,0.947,0.949,0.953,0.955,0.955,0.958,0.96,0.96,0.962,0.963,0.963,0.963,0.963,0.963,0.963,0.962,0.962,0.96,0.959,0.959,0.958,0.958,0,0,0,0,0,0,0,0,0,0,0,0,0,0,0,0,0,0,0,0,0
0,0,0,0,0,0,0,0,0,0,0,0,0,0,0,0,0,0,0,0,0,0,0,0,0,0,0,0,0,0,0,0,0,0,0,0,0,0,0,0,0,0,0,0,0,0,0,0,0,2.383,2.383,2.383,0,0,0,0,0,0,0,0,0,0,0,0,0,0,0,0,0,0,0,0,0,0,0,0,0,0,0,0,0,0,0,0,0,0,0,0,0,0,0,0,0,0,0,0,0,0,0,0,0,0,0,0,0,0,3.084,3.084,3.112,3.131,3.131,3.141,3.151,3.151,3.17,0,0,3.23,3.23,3.25,3.25,3.324,3.324,3.324,3.324,3.345,3.367,3.367,3.39,3.401,3.401,3.424,3.458,3.47,3.47,3.458,3.458,3.447,3.424,3.424,3.412,3.401,3.401,3.39,3.367,3.356,3.356,3.345,3.335,3.335,3.324,3.324,3.324,3.324,3.324,3.324,3.302,3.281,3.281,3.261,3.24,3.21,3.21,3.19,3.16,3.16,3.122,3.094,3.094,3.066,3.048,3.048,3.039,3.03,3.03,3.03,3.021,3.021,3.012,3.012,3.012,3.012,3.012,3.021,3.021,3.021,3.021,3.021,3.021,3.03,3.03,3.03,3.021,3.012,3.012,3.012,3.012,3.012,3.012,0,0,0,0,0,0,0,0,0,0,0,0,0,0,0,0,0,0,0,0,0,0,0,0,0,0,0,0,0,0,0,0,0,0,0,0,0,0,0,0,0,0,0,0,0,0,0,0,0,0,0,0,0,0,0,0,0,0,0,0,0,0,0,0,0,0,0,0,0,0,0,0,0,0,0,0,0,0,0,0,0,0,0,0,0,0,0.819,0.818,0.818,0.818,0.82,0.82,0.823,0.823,0.825,0.828,0.828,0.83,0.833,0.835,0.835,0.837,0.838,0.838,0.839,0.838,0.838,0.838,0.838,0.838,0.838,0.838,0.838,0.838,0.839,0.84,0.841,0.841,0.843,0.845,0.845,0.847,0.85,0.853,0.853,0.857,0.859,0.859,0.862,0.865,0.866,0.866,0.867,0.869,0.869,0.867,0.867,0.866,0.862,0.862,0.857,0.852,0.852,0.847,0.841,0.841,0.838,0.835,0.835,0.834,0.833,0.833,0.831,0.829,0.829,0.828,0.828,0.827,0.827,0.825,0.824,0.824,0.823,0.822,0.822,0.822,0.822,0.822,0.822,0.822,0.822,0.821,0.82,0.82,0.82,0.819,0.818,0.818,0.818,0.817,0.817,0.816,0.816,0.816,0.815,0.814,0.814,0.814,0.813,0.812,0.812,0.811,0.81,0.81,0.809,0.808,0.808,0.807,0.805,0.805,0.804,0.803,0.803,0.802,0.801,0.801,0.801,0.8,0.8,0.801,0.801,0.804,0.81,0.81,0.815,0.822,0.833,0.845,0.845,0.856,0.865,0.873,0.877,0.877,0.879,0.883,0.883,0.885,0.884,0.884,0.883,0.882,0.882,0.882,0.88,0.88,0.877,0.875,0.875,0.871,0.868,0.868,0.865,0.864,0.864,0.863,0.861,0.861,0.859,0.857,0.856,0.856,0.854,0.853,0.853,0.851,0.848,0.848,0.845,0.843,0.843,0.841,0.839,0.839,0.837,0.835,0.835,0.834,0.832,0.832,0.832,0.831,0.831,0.831,0.831,0.831,0.831,0.831,0.832,0.832,0.832,0.832,0.832,0.832,0.832,0.833,0.832,0.832,0.832,0.832,0.832,0.832,0,0,0,0,0,0,0,0,0,0,0,0,0,0,0,0,1.327,1.327,1.327,1.334,1.339,1.344,1.344,1.346,1.348,1.348,1.35,1.35,1.35,1.35,1.351,1.353,1.353,1.353,1.355,1.355,1.35,1.35,1.344,1.344,0,0,0,0,0,0,0,0,1.196,1.196,1.197,1.198,1.198,1.198,1.2,1.198,1.196,1.196,1.194,1.193,1.193,1.191,1.189,1.189,1.185,1.182,1.179,1.179,1.176,1.176,1.185,1.185,0,0,0,0,0,0,0,0,0.986,0.986,0.983,0.976,0.976,0.974,0.972,0.972,0.97,0.969,0.969,0.967,0.964,0.964,0.963,0.96,0.958,0.958,0.956,0.954,0.954,0.951,0.948,0.948,0.945,0.942,0.942,0.939,0.937,0.937,0.935,0.935,0.935,0.934,0.934,0.934,0.933,0.933,0.933,0.934,0.934,0.935,0.936,0.936,0.936,0.938,0.938,0.94,0.941,0.941,0.941,0.941,0.942,0.942,0.942,0.942,0.942,0.941,0.941,0.94,0.939,0.938,0.938,0.936,0.935,0.935,0.933,0.931,0.931,0.929,0.927,0.927,0.925,0.925,0.925,0.924,0.924,0.924,0.924,0.925,0.928,0.93,0.93,0.933,0.935,0.935,0.937,0.941,0.944,0.944,0.947,0.95,0.95,0.954,0.957,0.958,0.958,0.96,0.961,0.961,0.96,0.96,0.96,0.959,0.958,0.958,0.956,0.955,0.955,0.955,0.955,0,0,0,0,0,0,0,0,0,0,0,0,0,0,0,0,0,0,0,0,0
0,0,0,0,0,0,0,0,0,0,0,0,0,0,0,0,0,0,0,0,0,0,0,0,0,0,0,0,0,0,0,0,0,0,0,0,0,0,0,0,0,0,0,0,0,0,0,0,0,0,0,0,0,0,0,0,0,0,0,0,0,0,0,0,0,0,0,0,0,0,0,0,0,0,0,0,0,0,0,0,0,0,0,0,0,0,0,0,0,0,0,0,0,0,0,0,0,0,0,0,0,0,0,3.16,3.151,3.151,0,0,0,0,0,0,0,3.17,3.17,3.22,3.271,3.271,0,0,0,3.324,3.324,3.345,3.345,3.367,3.39,3.39,3.401,3.412,3.412,3.435,3.47,3.482,3.47,3.458,3.458,3.447,3.435,3.435,3.424,3.412,3.412,3.401,3.39,3.379,3.379,3.367,3.356,3.356,3.356,3.356,3.356,3.356,3.345,3.345,3.324,3.302,3.302,3.281,3.25,3.22,3.22,3.2,3.16,3.16,3.131,3.103,3.103,3.075,3.057,3.057,3.039,3.039,3.039,3.03,3.03,3.03,3.012,3.012,3.012,3.012,3.012,3.021,3.021,3.012,3.012,3.012,3.012,3.012,3.012,3.012,3.003,3.003,3.003,2.994,2.994,3.012,3.012,0,0,0,0,0,0,0,0,0,0,0,0,0,0,0,0,0,0,0,0,0,0,0,0,0,0,0,0,0,0,0,0,0,0,0,0,0,0,0,0,0,0,0,0,0,0,0,0,0,0,0,0,0,0,0,0,0,0,0,0,0,0,0,0,0,0,0,0,0,0,0,0,0,0,0,0,0,0,0,0,0,0,0,0,0,0,0,0,0,0.82,0.82,0.823,0.827,0.827,0.83,0.833,0.836,0.836,0.838,0.84,0.84,0.841,0.842,0.84,0.84,0.839,0.839,0.838,0.838,0.838,0.836,0.836,0.837,0.837,0.838,0.839,0.839,0.84,0.843,0.844,0.844,0.846,0.849,0.849,0.852,0.855,0.857,0.857,0.859,0.861,0.862,0.862,0.863,0.865,0.865,0.863,0.863,0.862,0.858,0.858,0.854,0.85,0.85,0.846,0.843,0.843,0.839,0.836,0.836,0.835,0.833,0.833,0.832,0.83,0.83,0.829,0.828,0.827,0.827,0.826,0.824,0.824,0.823,0.822,0.822,0.822,0.822,0.822,0.822,0.822,0.822,0.822,0.821,0.82,0.82,0.819,0.818,0.818,0.818,0.817,0.817,0.816,0.816,0.816,0.816,0.815,0.815,0.814,0.814,0.813,0.813,0.812,0.811,0.811,0.809,0.808,0.808,0.807,0.806,0.806,0.804,0.803,0.803,0.802,0.801,0.801,0.801,0.8,0.8,0.802,0.802,0.806,0.812,0.818,0.818,0.824,0.835,0.846,0.846,0.857,0.866,0.874,0.879,0.879,0.882,0.885,0.885,0.886,0.886,0.886,0.885,0.885,0.885,0.883,0.882,0.882,0.879,0.876,0.876,0.873,0.87,0.87,0.867,0.866,0.866,0.864,0.862,0.862,0.859,0.858,0.857,0.857,0.854,0.853,0.853,0.851,0.849,0.849,0.847,0.844,0.844,0.842,0.84,0.84,0.838,0.836,0.836,0.834,0.834,0.834,0.832,0.832,0.832,0.832,0.832,0.832,0.832,0.832,0.832,0.832,0.832,0.832,0.832,0.832,0.832,0.832,0.832,0.832,0.831,0.831,0.831,0.831,0,0,0,0,0,0,0,0,0,0,0,0,0,0,0,0,1.315,1.315,1.315,1.322,1.329,1.329,1.332,1.339,1.339,1.339,1.341,1.341,1.341,1.344,1.346,1.348,1.348,1.35,1.351,1.351,1.348,1.348,1.344,1.344,0,0,0,0,0,0,0,0,0,0,0,0,1.214,1.21,1.21,1.207,1.204,1.204,1.203,1.2,1.2,1.2,1.197,1.193,1.193,1.19,1.19,1.19,1.186,1.185,1.185,1.185,0,0,0,0,0,0,0,0,0,0,0.974,0.973,0.973,0.97,0.969,0.969,0.967,0.965,0.965,0.963,0.962,0.962,0.959,0.957,0.957,0.955,0.953,0.95,0.95,0.947,0.946,0.946,0.943,0.94,0.94,0.937,0.935,0.935,0.934,0.933,0.933,0.932,0.932,0.932,0.931,0.931,0.932,0.932,0.932,0.933,0.934,0.934,0.935,0.936,0.936,0.937,0.938,0.939,0.939,0.939,0.939,0.939,0.94,0.94,0.939,0.938,0.938,0.937,0.935,0.935,0.935,0.934,0.932,0.932,0.93,0.929,0.929,0.926,0.925,0.925,0.923,0.922,0.922,0.922,0.922,0.922,0.922,0.923,0.924,0.927,0.927,0.929,0.931,0.931,0.934,0.936,0.941,0.941,0.943,0.95,0.95,0.954,0.957,0.958,0.958,0.96,0.96,0.96,0.957,0.957,0.955,0.954,0.952,0.952,0.95,0.949,0.949,0.948,0.947,0.947,0.947,0.948,0.949,0.949,0.95,0.95,0.95,0.95,0.951,0,0,0,0,0,0,0,0,0,0,0
0,0,0,0,0,0,0,0,0,0,0,0,0,0,0,0,0,0,0,0,0,0,0,0,0,0,0,0,0,0,0,0,0,0,0,0,0,0,0,0,0,0,0,0,0,0,0,0,0,0,0,0,0,0,0,0,0,0,0,0,0,0,0,0,0,0,0,0,0,0,0,0,0,0,0,0,0,0,0,0,0,0,0,0,0,0,0,0,0,0,0,0,0,0,0,0,0,0,0,0,0,0,0,3.16,3.151,3.151,0,0,0,0,0,0,0,3.2,3.2,3.22,3.271,3.271,0,0,0,3.356,3.356,3.379,3.379,3.39,3.401,3.401,3.412,3.424,3.424,3.447,3.47,3.482,3.482,3.47,3.47,3.458,3.447,3.447,3.435,3.435,3.435,3.424,3.412,3.401,3.401,3.401,3.39,3.39,3.39,3.379,3.379,3.379,3.367,3.367,3.356,3.324,3.302,3.302,3.271,3.24,3.24,3.21,3.18,3.18,3.141,3.103,3.103,3.084,3.057,3.057,3.048,3.039,3.039,3.03,3.03,3.03,3.012,3.012,3.012,3.012,3.012,3.021,3.021,3.012,3.012,3.012,3.012,3.012,3.012,3.012,3.003,3.003,3.003,2.994,2.994,0,0,0,0,0,0,0,0,0,0,0,0,0,0,0,0,0,0,0,0,0,0,0,0,0,0,0,0,0,0,0,0,0,0,0,0,0,0,0,0,0,0,0,0,0,0,0,0,0,0,0,0,0,0,0,0,0,0,0,0,0,0,0,0,0,0,0,0,0,0,0,0,0,0,0,0,0,0,0,0,0,0,0,0,0,0,0,0,0,0,0,0,0,0,0,0,0,0,0,0,0,0,0,0.845,0.843,0.843,0.84,0.839,0.839,0.838,0.838,0.838,0.836,0.836,0.837,0.837,0.838,0.839,0.839,0.84,0.843,0.844,0.844,0.846,0.849,0.849,0.852,0.855,0.857,0.857,0.859,0.861,0.862,0.862,0.863,0.865,0.865,0.863,0.863,0.862,0.858,0.858,0.854,0.85,0.85,0.846,0.843,0.843,0.839,0.836,0.836,0.835,0.833,0.833,0.832,0.83,0.83,0.829,0.828,0.827,0.827,0.826,0.824,0.824,0.824,0.823,0.823,0.822,0.822,0.822,0.822,0.822,0.822,0.822,0.821,0.82,0.82,0.82,0.819,0.819,0.818,0.818,0.818,0.817,0.817,0.817,0.816,0.816,0.816,0.815,0.815,0.814,0.814,0.813,0.812,0.812,0.811,0.809,0.809,0.807,0.806,0.806,0.804,0.804,0.804,0.803,0.802,0.802,0.802,0.801,0.801,0.803,0.803,0.808,0.815,0.822,0.822,0.839,0.839,0.85,0.85,0.86,0.869,0.875,0.881,0.881,0.884,0.887,0.888,0.888,0.888,0.888,0.887,0.886,0.886,0.885,0.882,0.882,0.88,0.878,0.878,0.875,0.872,0.872,0.87,0.867,0.867,0.865,0.862,0.862,0.86,0.858,0.857,0.857,0.855,0.854,0.854,0.852,0.85,0.85,0.847,0.845,0.845,0.843,0.84,0.84,0.838,0.836,0.836,0.835,0.834,0.834,0.833,0.832,0.832,0.832,0.832,0.832,0.832,0.832,0.832,0.832,0.832,0.832,0.832,0.832,0.832,0.832,0.832,0.832,0.831,0.831,0.831,0.831,0,0,0,0,0,0,0,0,0,0,0,0,0,0,0,0,1.315,1.315,1.315,1.322,1.329,1.329,1.332,1.339,1.339,1.339,1.341,1.341,1.341,1.344,1.346,1.348,1.348,1.35,1.351,1.351,1.348,1.348,1.346,1.346,0,0,0,0,0,0,0,0,0,0,0,0,0,0,0,1.214,1.208,1.208,1.208,1.207,1.205,1.205,1.201,1.2,1.2,1.198,1.196,1.196,1.194,1.191,1.191,1.191,0,0,0,0,0,0,0,0,0,0,0.974,0.973,0.973,0.97,0.969,0.969,0.967,0.965,0.965,0.963,0.962,0.962,0.959,0.957,0.957,0.955,0.953,0.95,0.95,0.947,0.946,0.946,0.943,0.94,0.94,0.937,0.935,0.935,0.934,0.933,0.933,0.932,0.932,0.932,0.931,0.931,0.932,0.932,0.932,0.933,0.934,0.934,0.935,0.936,0.936,0.937,0.938,0.939,0.939,0.939,0.939,0.939,0.94,0.94,0.939,0.938,0.938,0.937,0.935,0.935,0.935,0.934,0.932,0.932,0.93,0.929,0.929,0.926,0.925,0.925,0.923,0.922,0.922,0.922,0.922,0.922,0.922,0.923,0.924,0.927,0.927,0.929,0.931,0.931,0.934,0.936,0.941,0.941,0.943,0,0,0,0,0,0,0.96,0.96,0.96,0.957,0.957,0.955,0.954,0.952,0.952,0.95,0.949,0.949,0.948,0.947,0.947,0.947,0.948,0.949,0.949,0.95,0.95,0.95,0.95,0.951,0,0,0,0,0,0,0,0,0,0,0
0,0,0,0,0,0,0,0,0,0,0,0,0,0,0,0,0,0,0,0,0,0,0,0,0,0,0,0,0,0,0,0,0,0,0,0,0,0,0,0,0,0,0,0,0,0,0,0,0,0,0,0,0,0,0,0,0,0,0,0,0,0,0,0,0,0,0,0,0,0,0,0,0,0,0,0,0,0,0,0,0,0,0,0,0,0,0,0,0,0,0,0,0,0,0,0,0,0,0,0,0,3.302,3.25,3.16,3.151,3.151,3.16,3.131,3.131,3.131,3.131,3.18,0,3.2,3.2,3.22,3.271,3.271,0,0,3.367,3.356,3.356,3.379,3.379,3.39,3.401,3.401,3.412,3.424,3.424,3.447,3.47,3.482,3.482,3.47,3.47,3.458,3.447,3.447,3.435,3.435,3.435,3.424,3.412,3.401,3.401,3.401,3.39,3.39,3.39,3.379,3.379,3.379,3.367,3.367,3.356,3.324,3.302,3.302,3.271,3.24,3.24,3.21,3.18,3.18,3.141,3.103,3.103,3.084,3.057,3.057,3.048,3.039,3.039,3.03,3.03,3.03,3.012,3.012,3.012,3.012,3.012,3.012,3.012,3.012,3.003,3.003,3.003,3.003,3.003,3.003,2.994,2.986,2.986,2.986,2.986,0,0,0,0,0,0,0,0,0,0,0,0,0,0,0,0,0,0,0,0,0,0,0,0,0,0,0,0,0,0,0,0,0,0,0,0,0,0,0,0,0,0,0,0,0,0,0,0,0,0,0,0,0,0,0,0,0,0,0,0,0,0,0,0,0,0,0,0,0,0,0,0,0,0,0,0.975,0.975,0,0,0,0,0,0.964,0.964,0.964,0,0,0,0,0,0,0,0,0,0,0,0,0,0,0,0,0.853,0.853,0.845,0.843,0.843,0.84,0.839,0.839,0.837,0.836,0.836,0.835,0.835,0.836,0.836,0.836,0.837,0.837,0.839,0.841,0.843,0.843,0.845,0.848,0.848,0.851,0.854,0.855,0.855,0.857,0.857,0.857,0.858,0.859,0.859,0.859,0.858,0.858,0.857,0.854,0.854,0.85,0.847,0.847,0.843,0.84,0.84,0.838,0.836,0.836,0.834,0.833,0.833,0.832,0.83,0.83,0.829,0.828,0.827,0.827,0.826,0.824,0.824,0.824,0.823,0.823,0.822,0.822,0.822,0.822,0.822,0.822,0.821,0.82,0.82,0.82,0.819,0.818,0.818,0.818,0.818,0.818,0.817,0.817,0.817,0.816,0.816,0.816,0.815,0.815,0.814,0.814,0.813,0.812,0.812,0.811,0.809,0.809,0.807,0.806,0.806,0.804,0.804,0.804,0.803,0.802,0.802,0.802,0.801,0.801,0.803,0.803,0.808,0.815,0.822,0.822,0.836,0.839,0.85,0.85,0.86,0.869,0.875,0.881,0.881,0.884,0.887,0.888,0.888,0.888,0.888,0.887,0.886,0.886,0.885,0.882,0.882,0.88,0.878,0.878,0.875,0.872,0.872,0.87,0.867,0.867,0.865,0.862,0.862,0.86,0.858,0.857,0.857,0.855,0.854,0.854,0.852,0.85,0.85,0.847,0.845,0.845,0.843,0.84,0.84,0.838,0.836,0.836,0.835,0.834,0.834,0.833,0.832,0.832,0.832,0.832,0.832,0.832,0.832,0.832,0.832,0.832,0.832,0.832,0.832,0.832,0.832,0.831,0.83,0.83,0.83,0.83,0.831,0,0,0,0,0,0,0,0,0,0,0,1.282,1.282,1.297,1.297,0,1.31,1.31,1.31,1.317,1.322,1.322,1.325,1.33,1.332,1.332,1.334,1.337,1.337,1.339,1.341,1.343,1.343,1.346,1.348,1.348,1.348,1.348,1.346,1.346,0,0,0,0,0,0,0,0,0,0,0,1.245,1.245,1.245,0,1.214,1.208,1.208,1.208,1.207,1.205,1.205,1.201,1.2,1.2,1.198,1.196,1.196,1.194,1.191,1.191,1.191,1.198,0,0,0,0,0,0,0,0,0,0.974,0.968,0.968,0.966,0.964,0.964,0.963,0.962,0.962,0.961,0.958,0.958,0.956,0.955,0.955,0.953,0.95,0.95,0.948,0.946,0.943,0.943,0.941,0.939,0.939,0.936,0.935,0.935,0.933,0.932,0.932,0.931,0.931,0.931,0.93,0.93,0.93,0.93,0.931,0.932,0.933,0.933,0.934,0.935,0.935,0.935,0.936,0.936,0.936,0.936,0.937,0.937,0.937,0.937,0.936,0.935,0.935,0.935,0.934,0.934,0.932,0.931,0.929,0.929,0.929,0.927,0.927,0.924,0.924,0.924,0.922,0.92,0.92,0.92,0.92,0.92,0.92,0.921,0.922,0.924,0.924,0.926,0.929,0.929,0.931,0.933,0.935,0.935,0.939,0.942,0.942,0.946,0,0,0,0.96,0.96,0.96,0.957,0.957,0.955,0.954,0.952,0.952,0.95,0.949,0.938,0.938,0.938,0.939,0.939,0.941,0.942,0.942,0.945,0.947,0.948,0.948,0.95,0.95,0.949,0.949,0,0,0,0,0,0,0,0
0,0,0,0,0,0,0,0,0,0,0,0,0,0,0,0,0,0,0,0,0,0,0,0,0,0,0,0,0,0,0,0,0,0,0,0,0,0,0,0,0,0,0,0,0,0,0,0,0,0,0,0,0,0,0,0,0,0,0,0,0,0,0,0,0,0,0,0,0,0,0,0,0,0,0,0,0,0,0,0,0,0,0,0,0,0,0,0,0,0,0,0,0,0,0,0,0,0,0,3.458,3.458,3.302,3.25,3.25,3.21,3.16,3.16,3.131,3.131,3.131,3.131,3.18,0,3.21,3.21,3.25,3.302,3.302,3.345,0,3.367,3.367,3.379,3.39,3.39,3.412,3.412,3.412,3.424,3.435,3.435,3.458,3.47,3.482,3.482,3.47,3.47,3.47,3.458,3.458,3.458,3.447,3.447,3.447,3.435,3.424,3.424,3.424,3.412,3.412,3.412,3.412,3.412,3.401,3.401,3.401,3.379,3.356,3.324,3.324,3.302,3.271,3.271,3.24,3.2,3.2,3.16,3.122,3.122,3.094,3.066,3.066,3.057,3.039,3.039,3.039,3.03,3.03,3.021,3.012,3.012,3.012,3.012,3.012,3.012,3.003,3.003,3.003,2.994,2.994,2.994,2.994,2.986,2.977,2.977,2.977,2.977,2.977,2.977,2.986,2.994,2.994,3.021,3.039,0,0,0,0,0,0,0,0,0,0,0,0,0,0,0,0,0,0,0,0,0,0,0,0,0,0,0,0,0,0,0,0,0,0,0,0,0,0,0,0,0,0,0,0,0,0,0,0,0,0,0,0,0,0,0,0,0,0,0,0,0,0,0,0,0,0.976,0.975,0.975,0.974,0.973,0.973,0.972,0.972,0,0.968,0.964,0.964,0.963,0.962,0.962,0.96,0.96,0,0,0,0,0,0,0,0,0,0.87,0.87,0.866,0.853,0.853,0.849,0.845,0.845,0.841,0.838,0.838,0.836,0.835,0.835,0.834,0.834,0.834,0.834,0.835,0.836,0.836,0.838,0.84,0.843,0.843,0.844,0.847,0.847,0.851,0.852,0.853,0.853,0.854,0.854,0.854,0.854,0.854,0.855,0.855,0.854,0.854,0.852,0.85,0.85,0.847,0.845,0.845,0.843,0.84,0.84,0.838,0.836,0.836,0.834,0.833,0.833,0.832,0.83,0.83,0.83,0.829,0.828,0.828,0.826,0.825,0.825,0.824,0.823,0.823,0.822,0.822,0.822,0.822,0.822,0.822,0.821,0.82,0.82,0.82,0.819,0.818,0.818,0.818,0.818,0.818,0.818,0.817,0.817,0.817,0.817,0.817,0.817,0.816,0.815,0.815,0.814,0.813,0.813,0.812,0.811,0.811,0.809,0.806,0.806,0.806,0.804,0.804,0.804,0.804,0.804,0.805,0.805,0.805,0.808,0.808,0.815,0.823,0.836,0.836,0.836,0.846,0.857,0.866,0.866,0.873,0.879,0.882,0.882,0.885,0.888,0.89,0.89,0.889,0.889,0.888,0.887,0.887,0.885,0.884,0.884,0.882,0.879,0.879,0.876,0.873,0.873,0.87,0.868,0.868,0.866,0.864,0.863,0.862,0.859,0.858,0.858,0.857,0.855,0.855,0.853,0.851,0.851,0.849,0.846,0.846,0.844,0.842,0.842,0.84,0.837,0.837,0.836,0.834,0.834,0.834,0.833,0.833,0.832,0.832,0.833,0.833,0.833,0.833,0.833,0.832,0.832,0.833,0.832,0.831,0.831,0.83,0.83,0.83,0.83,0.83,0,0,0,0,0,0,0,0,1.279,1.279,1.292,1.292,1.282,1.282,1.297,1.297,1.303,1.303,1.307,1.307,1.312,1.317,1.317,1.322,1.325,1.327,1.327,1.329,1.332,1.332,1.334,1.336,1.336,1.341,1.341,1.344,1.344,1.346,1.348,1.348,1.35,1.353,1.351,1.351,0,0,0,1.324,1.324,1.308,1.308,1.289,1.245,1.245,1.245,1.236,1.221,1.214,1.213,1.213,1.211,1.21,1.21,1.207,1.205,1.205,1.204,1.204,1.204,1.203,1.201,1.201,1.198,1.198,0,0,0,0,0,0,0,0,0,0,0.964,0.964,0.963,0.962,0.962,0.961,0.959,0.959,0.959,0.956,0.956,0.955,0.953,0.953,0.951,0.948,0.948,0.947,0.945,0.942,0.942,0.941,0.938,0.938,0.936,0.935,0.935,0.933,0.932,0.932,0.931,0.931,0.931,0.93,0.93,0.93,0.93,0.931,0.932,0.933,0.933,0.934,0.934,0.934,0.935,0.935,0.935,0.935,0.935,0.935,0.935,0.935,0.935,0.935,0.934,0.934,0.934,0.932,0.932,0.931,0.93,0.929,0.929,0.928,0.926,0.926,0.924,0.924,0.924,0.922,0.92,0.92,0.92,0.92,0.92,0.92,0.92,0.921,0.923,0.923,0.924,0.926,0.926,0.928,0.933,0.935,0.934,0.934,0.936,0.936,0.939,0.94,0.94,0.939,0.939,0,0,0,0,0,0,0,0,0.924,0.924,0.924,0.929,0.929,0.929,0.932,0.936,0.94,0.94,0.944,0.946,0.946,0.948,0.95,0.95,0.949,0.948,0.948,0.948,0,0,0.938,0.931,0.931,0.924
0,0,0,0,0,0,0,0,0,0,0,0,0,0,0,0,0,0,0,0,0,0,0,0,0,0,0,0,0,0,0,0,0,0,0,0,0,0,0,0,0,0,0,0,0,0,0,0,0,0,0,0,0,0,0,0,0,0,0,0,0,0,0,0,0,0,0,0,0,0,0,0,0,0,0,0,0,0,0,0,0,0,0,0,0,0,0,0,0,0,0,0,0,0,0,0,0,0,0,3.458,3.458,3.39,3.313,3.313,3.261,3.2,3.2,3.16,3.16,3.16,3.16,0,0,3.22,3.22,3.271,3.302,3.302,3.345,0,3.39,3.39,3.39,3.401,3.401,3.424,3.424,3.424,3.435,3.447,3.447,3.458,3.482,3.482,3.482,3.482,3.482,3.482,3.47,3.47,3.47,3.47,3.47,3.47,3.47,3.458,3.458,3.447,3.447,3.447,3.447,3.435,3.435,3.435,3.435,3.412,3.412,3.39,3.367,3.367,3.335,3.302,3.302,3.271,3.23,3.23,3.18,3.151,3.151,3.112,3.084,3.084,3.066,3.048,3.048,3.039,3.03,3.03,3.021,3.012,3.012,3.012,3.012,3.012,3.012,3.003,3.003,3.003,2.994,2.994,2.994,2.994,2.986,2.977,2.977,2.977,2.977,2.977,2.977,2.986,2.994,2.994,3.021,3.039,0,0,0,0,0,0,0,0,0,0,0,0,0,0,0,0,0,0,0,0,0,0,0,0,0,0,0,0,0,0,0,0,0,0,0,0,0,0,0,0,0,0,0,0,0,0,0,0,0,0,0,0,0,0,0,0,0,0,0,0,0,0,0,0,0,0.976,0.975,0.975,0.974,0.973,0.973,0.972,0.972,0,0.968,0.965,0.965,0.963,0.962,0.962,0.96,0.96,0,0,0,0,0,0,0,0,0,0.87,0.87,0.866,0.861,0.861,0.854,0.846,0.846,0.841,0.838,0.838,0.836,0.835,0.835,0.834,0.834,0.834,0.834,0.835,0.836,0.836,0.838,0.84,0.843,0.843,0.844,0.847,0.847,0.851,0.852,0.853,0.853,0.854,0.854,0.854,0.854,0.854,0.855,0.855,0.854,0.854,0.852,0.85,0.85,0.847,0.845,0.845,0.843,0.84,0.84,0.838,0.836,0.836,0.834,0.833,0.833,0.832,0.831,0.831,0.83,0.829,0.828,0.828,0.827,0.826,0.826,0.824,0.823,0.823,0.822,0.822,0.822,0.822,0.822,0.822,0.821,0.82,0.82,0.82,0.82,0.819,0.819,0.818,0.818,0.818,0.818,0.818,0.818,0.818,0.818,0.818,0.818,0.818,0.816,0.816,0.816,0.814,0.814,0.813,0.811,0.811,0.809,0.807,0.807,0.807,0.807,0.808,0.808,0.81,0.811,0.812,0.812,0.814,0.818,0.826,0.826,0.834,0.845,0.845,0.845,0.854,0.864,0.872,0.872,0.877,0.882,0.885,0.885,0.888,0.889,0.891,0.891,0.89,0.89,0.889,0.888,0.888,0.886,0.885,0.885,0.882,0.88,0.88,0.878,0.875,0.875,0.873,0.87,0.87,0.868,0.866,0.863,0.863,0.862,0.859,0.859,0.858,0.857,0.857,0.855,0.852,0.852,0.85,0.847,0.847,0.845,0.843,0.843,0.841,0.838,0.838,0.836,0.836,0.836,0.835,0.835,0.835,0.834,0.834,0.834,0.834,0.834,0.834,0.834,0.834,0.834,0.834,0.832,0.831,0.831,0.83,0.83,0.83,0.83,0.83,0,0,0,0,0,0,0,0,1.279,1.279,1.292,1.292,1.292,1.297,1.302,1.302,1.303,1.303,1.307,1.307,1.312,1.317,1.317,1.322,1.325,1.327,1.327,1.329,1.332,1.332,1.334,1.336,1.336,1.341,1.341,1.344,1.344,1.346,1.348,1.348,1.35,1.353,1.351,1.351,0,0,0,1.324,1.324,1.308,1.308,1.289,1.27,1.27,1.253,1.236,1.236,1.223,1.217,1.217,1.215,1.215,1.215,1.213,1.211,1.211,1.211,1.211,1.211,1.211,1.211,1.211,0,0,0,0,0,0,0,0,0,0,0,0,0.964,0.964,0.963,0.962,0.962,0.961,0.959,0.959,0.959,0.956,0.956,0.955,0.953,0.953,0.951,0.948,0.948,0.947,0.945,0.942,0.942,0.941,0.938,0.938,0.936,0.935,0.935,0.933,0.933,0.933,0.932,0.931,0.931,0.931,0.931,0.931,0.931,0.932,0.932,0.933,0.933,0.934,0.934,0.934,0.935,0.935,0.935,0.935,0.935,0.935,0.935,0.935,0.935,0.935,0.934,0.934,0.934,0.932,0.932,0.931,0.93,0.929,0.929,0.928,0.926,0.926,0.924,0.924,0.924,0.922,0.921,0.921,0.92,0.92,0.92,0.92,0.92,0.921,0.923,0.923,0.924,0.926,0.926,0.928,0,0,0.934,0.934,0.936,0.936,0.939,0.94,0.94,0.939,0.939,0,0,0,0,0,0,0,0,0.924,0.924,0.924,0.929,0.929,0.929,0.932,0.936,0.94,0.94,0.944,0.946,0.946,0.948,0.95,0.95,0.949,0.948,0.948,0.948,0,0,0.938,0.931,0.931,0.924
0,0,0,0,0,0,0,0,0,0,0,0,0,0,0,0,0,0,0,0,0,0,0,0,0,0,0,0,0,0,0,0,0,0,0,0,0,0,0,0,0,0,0,0,0,0,0,0,0,0,0,0,0,0,0,0,0,0,0,0,0,0,0,0,0,0,0,0,0,0,0,0,0,0,0,0,0,0,0,0,0,0,0,0,0,0,0,0,0,0,0,0,0,0,0,0,0,0,0,3.458,3.458,3.39,3.313,3.313,3.261,3.2,3.2,3.16,3.16,3.16,3.16,3.345,3.379,3.22,3.22,3.271,3.302,3.302,3.345,3.412,3.39,3.39,3.39,3.401,3.401,3.424,3.424,3.424,3.435,3.447,3.447,3.458,3.482,3.482,3.482,3.482,3.482,3.482,3.47,3.47,3.47,3.47,3.47,3.47,3.47,3.458,3.458,3.447,3.447,3.447,3.447,3.435,3.435,3.435,3.435,3.412,3.412,3.39,3.367,3.367,3.335,3.302,3.302,3.271,3.23,3.23,3.18,3.151,3.151,3.112,3.084,3.084,3.066,3.048,3.048,3.039,3.021,3.021,3.012,3.012,3.012,3.012,3.012,3.012,3.012,3.003,3.003,3.003,2.994,2.994,2.994,2.994,2.986,2.977,2.977,2.977,2.977,2.977,2.977,2.986,2.994,2.994,3.021,3.03,0,0,0,0,0,0,0,0,0,0,0,0,0,0,0,0,0,0,0,0,0,0,0,0,0,0,0,0,0,0,0,0,0,0,0,0,0,0,0,0,0,0,0,0,0,0,0,0,0,0,0,0,0,0,0,0,0,0,0,0,0,0,0,0,0.976,0.975,0.975,0.974,0.973,0.972,0.972,0.971,0.97,0.97,0.967,0.965,0.965,0.963,0.962,0.962,0.96,0.956,0.956,0.956,0,0,0,0,0.914,0.903,0.903,0.87,0.87,0.866,0.861,0.861,0.854,0.846,0.846,0.841,0.838,0.838,0.836,0.834,0.834,0.833,0.833,0.833,0.833,0.834,0.834,0.834,0.836,0.839,0.841,0.841,0.843,0.847,0.847,0.85,0.852,0.852,0.852,0.853,0.854,0.854,0.853,0.853,0.853,0.852,0.851,0.851,0.85,0.847,0.847,0.845,0.843,0.843,0.84,0.838,0.838,0.837,0.835,0.835,0.834,0.833,0.833,0.832,0.831,0.831,0.83,0.829,0.828,0.828,0.827,0.826,0.826,0.824,0.823,0.823,0.822,0.822,0.822,0.822,0.822,0.822,0.821,0.82,0.82,0.82,0.82,0.819,0.819,0.818,0.818,0.818,0.818,0.818,0.818,0.818,0.818,0.818,0.818,0.818,0.816,0.816,0.816,0.814,0.814,0.813,0.811,0.811,0.809,0.807,0.807,0.807,0.807,0.808,0.808,0.81,0.811,0.812,0.812,0.814,0.818,0.826,0.826,0.834,0.845,0.845,0.845,0.854,0.864,0.872,0.872,0.877,0.882,0.885,0.885,0.888,0.889,0.891,0.89,0.889,0.889,0.889,0.888,0.888,0.886,0.885,0.885,0.882,0.88,0.88,0.878,0.875,0.875,0.873,0.87,0.87,0.868,0.866,0.863,0.863,0.862,0.859,0.859,0.858,0.857,0.857,0.855,0.852,0.852,0.85,0.847,0.847,0.845,0.843,0.843,0.841,0.838,0.838,0.836,0.836,0.836,0.835,0.835,0.835,0.834,0.834,0.834,0.834,0.834,0.834,0.834,0.834,0.834,0.834,0.832,0.831,0.831,0.83,0.83,0.83,0.83,0.83,0,0,0,0,0,0,0,0,1.279,1.279,1.292,1.292,1.292,1.297,1.302,1.302,1.303,1.303,1.305,1.305,1.31,1.313,1.313,1.317,1.322,1.324,1.324,1.325,1.329,1.329,1.33,1.332,1.332,1.336,1.337,1.341,1.341,1.341,1.344,1.344,1.348,1.35,1.35,1.35,1.348,1.348,1.343,1.324,1.324,1.308,1.307,1.289,1.27,1.27,1.253,1.236,1.236,1.223,1.217,1.217,1.215,1.215,1.215,1.213,1.21,1.21,1.21,1.21,1.211,1.211,1.211,1.211,0,0,0,0,0,0,0,0,0,0,0,0,0.964,0.964,0.963,0.961,0.961,0.96,0.959,0.959,0.958,0.956,0.956,0.954,0.953,0.953,0.95,0.948,0.948,0.947,0.945,0.942,0.942,0.941,0.938,0.938,0.936,0.935,0.935,0.933,0.933,0.933,0.932,0.931,0.931,0.931,0.931,0.931,0.931,0.932,0.932,0.933,0.933,0.934,0.934,0.934,0.935,0.935,0.935,0.935,0.935,0.935,0.935,0.934,0.934,0.934,0.932,0.932,0.932,0.931,0.931,0.93,0.929,0.929,0.929,0.927,0.926,0.926,0.924,0.924,0.924,0.922,0.921,0.921,0.92,0.92,0.92,0.92,0.92,0.92,0.921,0.921,0.923,0.924,0.924,0.928,0,0,0.934,0.934,0.936,0.936,0.939,0.94,0.94,0.939,0.939,0,0,0,0.915,0.915,0.915,0.915,0.914,0.914,0.915,0.915,0.919,0.929,0.929,0.929,0.933,0.938,0.938,0.941,0.946,0.946,0.948,0.95,0.95,0.948,0.947,0.947,0.947,0.947,0,0.938,0.931,0.931,0.924
0,0,0,0,0,0,0,0,0,0,0,0,0,0,0,0,0,0,0,0,0,0,0,0,0,0,0,0,0,0,0,0,0,0,0,0,0,0,0,0,0,0,0,0,0,0,0,0,0,0,0,0,0,0,0,0,0,0,0,0,0,0,0,0,0,0,0,0,0,0,0,0,0,0,0,0,0,0,0,0,0,0,0,0,0,0,0,0,0,0,0,0,0,0,0,0,0,0,0,3.566,3.566,3.505,3.458,3.458,3.412,3.367,3.367,3.335,3.324,3.324,3.324,3.345,3.379,3.39,3.39,3.401,3.412,3.412,3.412,3.412,3.412,3.424,3.424,3.424,3.424,3.435,3.435,3.435,3.447,3.447,3.447,3.458,3.482,3.493,3.493,3.493,3.493,3.493,3.493,3.493,3.493,3.493,3.493,3.493,3.493,3.482,3.482,3.47,3.47,3.47,3.47,3.47,3.47,3.47,3.458,3.447,3.447,3.424,3.39,3.39,3.367,3.335,3.335,3.292,3.261,3.261,3.21,3.17,3.17,3.122,3.094,3.094,3.075,3.048,3.048,3.039,3.021,3.021,3.012,3.012,3.012,3.012,3.012,3.012,3.012,3.003,3.003,3.003,3.003,2.994,2.994,2.994,2.986,2.986,2.986,2.977,2.977,2.977,2.977,2.977,2.994,2.994,3.021,3.03,0,0,0,0,0,0,0,0,0,0,0,0,0,0,0,0,0,0,0,0,0,0,0,0,0,0,0,0,0,0,0,0,0,0,0,0,0,0,0,0,0,0,0,0,0,0,0,0,0,0,0,0,0,0,0,0,0,0,0,0,0,0.976,0.974,0.974,0.974,0.973,0.973,0.971,0.97,0.97,0.97,0.969,0.969,0.969,0.967,0.965,0.965,0.964,0.963,0.963,0.961,0.956,0.956,0.956,0.948,0.948,0.948,0.939,0.914,0.903,0.903,0.894,0.885,0.885,0.874,0.874,0.862,0.856,0.856,0.856,0.838,0.838,0.836,0.834,0.834,0.832,0.832,0.832,0.832,0.834,0.834,0.834,0.836,0.838,0.84,0.84,0.843,0.847,0.847,0.85,0.852,0.852,0.852,0.853,0.853,0.853,0.852,0.852,0.852,0.852,0.851,0.851,0.85,0.847,0.847,0.845,0.842,0.842,0.84,0.838,0.838,0.836,0.834,0.834,0.833,0.832,0.832,0.832,0.831,0.831,0.83,0.83,0.828,0.828,0.827,0.826,0.826,0.825,0.824,0.824,0.823,0.822,0.822,0.822,0.822,0.822,0.822,0.821,0.82,0.82,0.82,0.82,0.82,0.82,0.819,0.819,0.819,0.819,0.819,0.819,0.82,0.82,0.82,0.819,0.818,0.818,0.816,0.815,0.815,0.815,0.813,0.813,0.812,0.812,0.813,0.813,0.813,0.815,0.818,0.818,0.82,0.822,0.822,0.825,0.83,0.836,0.836,0.843,0.854,0.854,0.854,0.861,0.87,0.876,0.88,0.88,0.883,0.885,0.885,0.888,0.889,0.891,0.89,0.889,0.889,0.888,0.887,0.887,0.886,0.885,0.885,0.883,0.881,0.881,0.879,0.876,0.876,0.873,0.872,0.87,0.87,0.867,0.865,0.865,0.863,0.862,0.862,0.86,0.858,0.858,0.857,0.854,0.854,0.852,0.849,0.849,0.847,0.844,0.844,0.842,0.839,0.839,0.837,0.836,0.836,0.836,0.836,0.836,0.836,0.836,0.835,0.835,0.834,0.834,0.835,0.834,0.834,0.834,0.832,0.83,0.83,0.83,0.83,0.83,0,0,0,0,0,0,0,0,0,1.325,1.325,1.325,1.327,0,1.307,1.305,1.305,1.305,1.305,1.305,1.305,1.305,1.31,1.313,1.313,1.317,1.32,1.322,1.322,1.325,1.325,1.325,1.327,1.33,1.33,1.332,1.334,1.337,1.337,1.337,1.341,1.341,1.344,1.346,1.346,1.346,1.346,1.346,1.343,1.337,1.337,1.325,1.307,1.307,1.289,1.289,1.268,1.246,1.246,1.229,1.217,1.217,1.217,0,0,0,1.21,1.21,1.21,1.21,1.211,1.211,0,0,0,0,0,0,0,0,0,0,0,0,0,0,0,0,0,0.961,0.961,0.96,0.958,0.958,0.958,0.956,0.956,0.954,0.953,0.953,0.95,0.948,0.948,0.947,0.945,0.943,0.942,0.941,0.939,0.939,0.937,0.935,0.935,0.935,0.934,0.934,0.934,0.933,0.933,0.933,0.933,0.934,0.934,0.934,0.934,0.934,0.934,0.934,0.935,0.935,0.935,0.935,0.935,0.935,0.935,0.935,0.934,0.933,0.933,0.933,0.932,0.932,0.931,0.931,0.931,0.93,0.929,0.928,0.928,0.927,0.926,0.926,0.924,0.924,0.924,0.922,0.921,0.921,0.921,0.92,0.92,0.92,0.92,0.92,0.921,0.921,0.922,0.922,0.922,0,0,0,0,0,0,0,0,0,0,0,0,0,0,0,0.915,0.915,0.915,0.915,0.914,0.914,0.91,0.91,0.915,0.922,0.922,0.929,0.933,0.938,0.938,0.941,0.946,0.946,0.948,0.949,0.949,0.948,0.947,0.947,0.946,0.943,0.943,0.943,0,0,0
0,0,0,0,0,0,0,0,0,0,0,0,0,0,0,0,0,0,0,0,0,0,0,0,0,0,0,0,0,0,0,0,0,0,0,0,0,0,0,0,0,0,0,0,0,0,0,0,0,0,0,0,0,0,0,0,0,0,0,0,0,0,0,0,0,0,0,0,0,0,0,0,0,0,0,0,0,0,0,0,0,0,0,0,0,0,0,0,0,0,0,0,0,0,0,0,3.876,3.876,3.79,3.616,3.616,3.554,3.554,0,0,3.39,3.39,3.356,3.356,0,0,3.47,3.447,3.447,3.447,3.458,3.47,3.47,3.458,3.458,3.458,3.458,3.458,3.458,3.458,3.458,3.458,3.458,3.458,3.458,3.458,3.47,3.493,3.505,3.505,3.505,3.505,3.505,3.505,3.505,3.505,3.517,3.517,3.517,3.505,3.493,3.493,3.493,3.493,3.493,3.482,3.482,3.493,3.493,3.482,3.47,3.47,3.447,3.412,3.412,3.39,3.356,3.356,3.324,3.271,3.271,3.22,3.18,3.18,3.131,3.103,3.103,3.075,3.057,3.057,3.039,3.021,3.021,3.003,3.003,3.003,3.003,3.003,3.012,3.012,3.003,3.003,3.003,3.003,2.994,2.994,2.994,2.994,2.986,2.986,2.977,2.977,2.977,2.977,2.977,2.994,2.994,3.003,3.021,0,0,0,0,0,0,0,0,0,0,0,0,0,0,0,0,0,0,0,0,0,0,0,0,0,0,0,0,0,0,0,0,0,0,0,0,0,0,0,0,0,0,0,0,0,0,0,0,0,0,0,0,0,0,0,0,0,0,0,0,0,0.976,0.974,0.974,0.974,0.973,0.973,0.971,0.97,0.97,0.97,0.969,0.969,0.969,0.968,0.966,0.966,0.964,0.963,0.963,0.961,0.957,0.957,0.957,0.948,0.948,0.948,0.939,0.939,0.929,0.922,0.922,0.912,0.912,0,0,0,0.856,0.856,0.856,0.838,0.838,0.836,0.834,0.834,0.832,0.832,0.832,0.832,0.834,0.834,0.834,0.836,0.838,0.84,0.84,0.843,0.847,0.847,0.85,0.852,0.852,0.852,0.853,0.853,0.853,0.852,0.852,0.852,0.852,0.851,0.851,0.85,0.847,0.847,0.845,0.842,0.842,0.84,0.838,0.838,0.836,0.834,0.834,0.833,0.832,0.832,0.832,0.831,0.831,0.831,0.83,0.829,0.829,0.828,0.827,0.827,0.826,0.825,0.825,0.824,0.823,0.823,0.822,0.822,0.822,0.822,0.821,0.821,0.821,0.82,0.82,0.82,0.82,0.82,0.82,0.82,0.82,0.821,0.821,0.821,0.821,0.821,0.82,0.82,0.82,0.819,0.818,0.818,0.818,0.818,0.818,0.818,0.818,0.82,0.822,0.822,0.826,0.828,0.828,0.83,0.833,0,0.84,0.84,0,0,0.857,0.857,0.861,0.868,0.868,0.875,0.879,0.882,0.882,0.884,0.886,0.886,0.888,0.889,0.891,0.89,0.889,0.889,0.888,0.887,0.887,0.886,0.885,0.885,0.883,0.882,0.882,0.879,0.877,0.877,0.875,0.873,0.871,0.871,0.87,0.867,0.867,0.865,0.863,0.863,0.862,0.86,0.86,0.858,0.855,0.855,0.852,0.85,0.85,0.847,0.845,0.845,0.843,0.84,0.84,0.838,0.837,0.837,0.837,0.836,0.836,0.836,0.836,0.836,0.836,0.836,0.836,0,0.836,0.834,0.834,0.832,0.83,0.83,0.83,0.83,0,0,0,0,0,0,0,0,1.359,1.359,1.325,1.325,1.325,1.327,1.322,1.322,1.308,1.308,1.308,1.307,1.307,1.308,1.308,1.31,1.315,1.315,1.317,1.32,1.322,1.322,1.325,1.325,1.325,1.327,1.329,1.329,1.33,1.332,1.334,1.334,1.336,1.337,1.337,1.341,1.344,1.344,1.344,1.344,1.344,1.341,1.339,1.339,1.329,1.322,1.322,1.322,0,0,0,0,0,0,0,0,0,0,0,1.213,1.213,1.211,1.211,0,0,0,0,0,0,0,0,0,0,0,0,0,0,0,0,0,0,0,0.961,0.961,0.96,0.958,0.958,0.958,0.956,0.956,0.955,0.953,0.953,0.951,0.949,0.949,0.947,0.945,0.943,0.943,0.942,0.941,0.941,0.939,0.937,0.937,0.936,0.935,0.935,0.935,0.935,0.935,0.935,0.935,0.935,0.935,0.935,0.935,0.935,0.935,0.935,0.935,0.935,0.935,0.935,0.935,0.934,0.934,0.934,0.934,0.932,0.932,0.932,0.932,0.932,0.931,0.931,0.931,0.93,0.929,0.928,0.928,0.927,0.926,0.926,0.925,0.924,0.924,0.923,0.922,0.922,0.922,0.922,0.922,0.921,0.921,0.921,0.921,0.921,0.921,0.922,0.922,0,0,0,0,0,0,0,0,0,0,0,0,0,0,0,0,0.9,0.9,0.9,0.903,0.903,0.903,0.905,0.912,0.919,0.919,0.925,0.933,0.938,0.938,0.942,0.946,0.946,0.948,0.949,0.949,0.948,0.947,0.947,0.946,0.943,0.943,0.941,0.941,0,0.934
0,0,0,0,0,0,0,0,0,0,0,0,0,0,0,0,0,0,0,0,0,0,0,0,0,0,0,0,0,0,0,0,0,0,0,0,0,0,0,0,0,0,0,0,0,0,0,0,0,0,0,0,0,0,0,0,0,0,0,0,0,0,0,0,0,0,0,0,0,0,0,0,0,0,0,0,0,0,0,0,0,0,0,0,0,0,0,0,0,0,0,0,0,0,0,0,3.876,3.876,3.79,3.694,3.694,3.629,3.629,0,0,3.447,3.447,3.447,0,0,0,3.47,3.47,3.493,3.493,3.505,3.505,3.505,3.493,3.493,3.493,3.482,3.482,3.482,3.482,3.47,3.47,3.47,3.47,3.47,3.47,3.482,3.493,3.517,3.517,3.517,3.517,3.517,3.529,3.529,3.529,3.529,3.529,3.542,3.529,3.505,3.505,3.505,3.493,3.493,3.493,3.493,3.493,3.493,3.493,3.482,3.482,3.458,3.435,3.435,3.412,3.379,3.379,3.345,3.292,3.292,3.24,3.19,3.19,3.141,3.103,3.103,3.084,3.057,3.057,3.039,3.021,3.021,3.003,3.003,3.003,3.003,3.003,3.012,3.012,3.003,3.003,3.003,3.003,2.994,2.994,2.994,2.994,2.986,2.986,2.977,2.977,2.977,2.977,2.977,2.994,2.994,3.003,3.021,0,0,0,0,0,0,0,0,0,0,0,0,0,0,0,0,0,0,0,0,0,0,0,0,0,0,0,0,0,0,0,0,0,0,0,0,0,0,0,0,0,0,0,0,0,0,0,0,0,0,0,0,0,0,0,0,0,0,0,0.975,0.975,0.974,0.972,0.972,0.972,0.971,0.971,0.97,0.968,0.968,0.969,0.968,0.968,0.968,0.967,0.966,0.966,0.964,0.963,0.963,0.961,0.957,0.957,0.955,0.948,0.948,0.948,0.939,0.939,0.929,0.922,0.922,0.912,0.912,0,0,0,0.856,0.856,0.856,0.838,0.838,0.835,0.832,0.832,0.832,0.832,0.832,0.832,0.832,0.833,0.833,0.834,0.838,0.84,0.84,0.843,0.846,0.846,0.85,0.852,0.852,0.852,0.853,0.853,0.852,0.852,0.852,0.852,0.852,0.85,0.85,0.849,0.847,0.847,0.844,0.842,0.842,0.839,0.837,0.837,0.836,0.834,0.834,0.832,0.832,0.832,0.832,0.831,0.831,0.831,0.83,0.829,0.829,0.828,0.827,0.827,0.826,0.825,0.825,0.824,0.823,0.823,0.822,0.822,0.822,0.822,0.821,0.821,0.821,0.82,0.82,0.82,0.82,0.82,0.82,0.82,0.82,0.821,0.821,0.821,0.821,0.821,0.82,0.82,0.82,0.819,0.818,0.818,0.818,0.818,0.818,0.818,0.818,0.82,0.822,0.822,0.826,0.828,0.828,0.83,0.833,0.847,0.84,0.84,0.861,0.861,0.857,0.857,0.861,0.868,0.868,0.875,0.879,0.882,0.882,0.884,0.886,0.886,0.888,0.888,0.889,0.889,0.888,0.888,0.888,0.886,0.886,0.885,0.885,0.885,0.883,0.882,0.882,0.879,0.877,0.877,0.875,0.873,0.871,0.871,0.87,0.867,0.867,0.865,0.863,0.863,0.862,0.86,0.86,0.858,0.855,0.855,0.852,0.85,0.85,0.847,0.845,0.845,0.843,0.84,0.84,0.838,0.837,0.837,0.837,0.836,0.836,0.836,0.836,0.836,0.836,0.836,0.836,0,0.836,0.834,0.834,0.832,0.83,0.83,0.83,0.83,0,0,0,0,0,0,0,0,1.359,1.359,1.344,1.339,1.339,1.332,1.322,1.322,1.317,1.315,1.315,1.312,1.312,1.313,1.313,1.315,1.317,1.317,1.32,1.322,1.324,1.324,1.325,1.327,1.327,1.327,1.329,1.329,1.33,1.332,1.334,1.334,1.336,1.337,1.337,1.341,1.344,1.344,1.344,1.344,1.344,1.341,1.339,1.339,1.332,1.322,1.322,1.322,0,0,0,0,0,0,0,0,0,0,0,1.213,1.213,1.211,1.211,0,0,0,0,0,0,0,0,0,0,0,0,0,0,0,0,0,0,0,0.961,0.961,0.96,0.959,0.959,0.958,0.956,0.956,0.955,0.954,0.954,0.952,0.95,0.95,0.948,0.947,0.945,0.945,0.943,0.941,0.941,0.941,0.939,0.939,0.937,0.937,0.937,0.937,0.936,0.936,0.936,0.936,0.936,0.936,0.935,0.935,0.935,0.935,0.935,0.935,0.935,0.935,0.935,0.935,0.934,0.934,0.934,0.934,0.932,0.932,0.932,0.932,0.932,0.932,0.931,0.931,0.93,0.929,0.929,0.929,0.929,0.928,0.928,0.927,0.926,0.926,0.925,0.924,0.924,0.924,0.924,0.924,0.923,0.922,0.922,0.922,0.921,0.921,0,0,0,0,0,0,0,0,0,0,0,0,0,0,0,0,0,0,0.9,0.9,0.9,0.903,0.903,0.903,0.905,0.912,0.919,0.919,0.925,0.938,0.938,0.938,0.942,0.947,0.947,0.948,0.949,0.949,0.948,0.947,0.947,0.946,0.944,0.944,0.941,0.941,0,0.934
0,0,0,0,0,0,0,0,0,0,0,0,0,0,0,0,0,0,0,0,0,0,0,0,0,0,0,0,0,0,0,0,0,0,0,0,0,0,0,0,0,0,0,0,0,0,0,0,0,0,0,0,0,0,0,0,0,0,0,0,0,0,0,0,0,0,0,0,0,0,0,0,0,0,0,0,0,0,0,0,0,0,0,0,0,0,0,0,0,0,0,0,0,0,0,0,3.876,3.876,3.79,3.694,3.694,3.629,3.629,0,0,3.447,3.447,3.447,0,0,0,3.47,3.47,3.493,3.493,3.505,3.505,3.505,3.493,3.493,3.493,3.482,3.482,3.482,3.482,3.47,3.47,3.47,3.47,3.47,3.47,3.482,3.493,3.517,3.517,3.517,3.517,3.517,3.529,3.529,3.529,3.529,3.529,3.542,3.529,3.505,3.505,3.505,3.493,3.493,3.493,3.493,3.493,3.493,3.493,3.482,3.482,3.458,3.435,3.435,3.412,3.379,3.379,3.345,3.292,3.292,3.24,3.19,3.19,3.141,3.103,3.103,3.084,3.057,3.057,3.039,3.021,3.021,3.003,3.003,2.994,2.994,2.994,3.003,3.003,3.003,2.994,2.994,2.994,2.994,2.994,2.994,2.994,2.986,2.986,2.977,2.977,2.977,2.977,2.977,2.994,2.994,3.003,3.021,0,0,0,0,0,0,0,0,0,0,0,0,0,0,0,0,0,0,0,0,0,0,0,0,0,0,0,0,0,0,0,0,0,0,0,0,0,0,0,0,0,0,0,0,0,0,0,0,0,0,0,0,0,0,0,0,0,0,0.976,0.974,0.974,0.974,0.971,0.971,0.97,0.969,0.969,0.968,0.968,0.968,0.968,0.968,0.968,0.968,0.967,0.966,0.966,0.964,0.963,0.963,0.962,0.959,0.959,0.955,0.954,0.954,0.948,0.945,0.945,0.941,0.941,0.95,0.954,0.954,0,0,0,0,0,0,0,0,0.834,0.831,0.831,0.83,0.83,0.831,0.831,0.831,0.832,0.832,0.834,0.838,0,0.843,0.843,0.846,0.846,0.85,0.852,0.852,0.852,0.852,0.852,0.852,0.852,0.852,0.852,0.852,0.85,0.85,0.849,0.847,0.847,0.844,0.842,0.842,0.839,0.837,0.837,0.836,0.834,0.834,0.832,0.832,0.832,0.832,0.832,0.832,0.832,0.831,0.83,0.83,0.83,0.828,0.828,0.828,0.827,0.827,0.826,0.824,0.824,0.824,0.823,0.823,0.823,0.822,0.822,0.822,0.822,0.822,0.822,0.822,0.821,0.821,0.821,0.822,0.822,0.822,0.822,0.822,0.822,0.822,0.822,0.822,0.822,0.823,0.824,0.824,0.825,0,0,0,0.834,0.834,0.834,0,0.852,0.852,0.843,0.843,0.847,0.852,0.852,0.861,0.861,0.861,0.864,0.867,0.873,0.873,0.878,0.882,0.883,0.883,0.885,0.886,0.886,0.888,0.888,0.888,0.888,0.888,0.888,0.887,0.885,0.885,0.885,0.883,0.883,0.882,0.881,0.881,0.879,0.878,0.878,0.876,0.874,0.873,0.873,0.87,0.868,0.868,0.867,0.865,0.865,0.863,0.862,0.862,0.859,0.857,0.857,0.854,0.851,0.851,0.848,0.845,0.845,0.843,0.84,0.84,0.839,0.837,0.837,0.837,0.837,0.837,0.837,0.836,0.836,0.836,0.836,0.837,0,0.836,0.836,0.837,0.834,0.833,0.833,0.832,0.832,0,0,0,0,0,0,0,1.399,1.359,1.359,1.344,1.339,1.339,1.332,1.322,1.322,1.317,1.315,1.315,1.312,1.312,1.313,1.313,1.315,1.317,1.317,1.32,1.322,1.324,1.324,1.325,1.327,1.327,1.327,1.329,1.329,1.33,1.332,1.334,1.334,1.336,1.337,1.337,1.341,1.344,1.344,1.344,1.344,1.344,1.341,1.339,1.339,1.332,1.322,1.322,1.322,0,0,0,0,0,0,0,0,0,0,0,1.213,1.213,1.211,1.211,0,0,0,0,0,0,0,0,0,0,0,0,0,0,0,0,0.963,0.963,0.962,0.961,0.961,0.96,0.959,0.959,0.958,0.956,0.956,0.955,0.954,0.954,0.952,0.95,0.95,0.948,0.947,0.945,0.945,0.943,0.941,0.941,0.941,0.939,0.939,0.937,0.937,0.937,0.937,0.936,0.936,0.936,0.936,0.936,0.936,0.935,0.935,0.935,0.935,0.935,0.935,0.935,0.935,0.935,0.934,0.934,0.933,0.933,0.933,0.932,0.932,0.932,0.932,0.932,0.931,0.931,0.931,0.93,0.929,0.929,0.929,0.929,0.928,0.928,0.927,0.926,0.926,0.925,0.924,0.924,0.924,0.924,0.924,0.923,0.922,0.922,0.922,0.921,0.92,0.92,0.92,0,0,0,0,0,0,0,0,0,0.905,0.905,0.903,0.903,0.903,0.902,0.902,0.9,0.9,0.9,0.901,0.903,0.903,0.905,0.911,0.919,0.919,0.925,0.938,0.938,0.938,0.942,0.947,0.947,0.948,0.949,0.949,0.948,0.947,0.947,0.945,0.943,0.943,0.941,0.939,0.939,0.934
0,0,0,0,0,0,0,0,0,0,0,0,0,0,0,0,0,0,0,0,0,0,0,0,0,0,0,0,0,0,0,0,0,0,0,0,0,0,0,0,0,0,0,0,0,0,0,0,0,0,0,0,0,0,0,0,0,0,0,0,0,0,0,0,0,0,0,0,0,0,0,0,0,0,0,0,0,0,0,0,0,0,0,0,0,0,0,0,0,0,0,0,0,0,4.06,4.06,3.966,3.89,3.89,3.818,3.735,3.735,3.721,3.721,0,3.554,3.554,0,0,0,0,3.554,3.554,3.566,3.566,3.554,3.554,3.554,3.554,3.529,3.529,3.517,3.505,3.505,3.505,3.493,3.493,3.493,3.493,3.493,3.505,3.505,3.517,3.529,3.529,3.542,3.542,3.542,3.554,3.554,3.554,3.554,3.554,3.554,3.542,3.529,3.529,3.517,3.517,3.517,3.517,3.517,3.505,3.505,3.505,3.493,3.493,3.47,3.458,3.458,3.435,3.401,3.401,3.356,3.313,3.313,3.25,3.2,3.2,3.151,3.122,3.122,3.084,3.066,3.066,3.039,3.021,3.021,3.003,2.994,2.994,2.994,2.994,2.994,2.994,2.994,2.994,2.994,2.994,2.994,2.994,2.994,2.994,2.994,2.994,2.994,0,0,0,0,0,0,0,0,0,0,0,0,0,0,0,0,0,0,0,0,0,0,0,0,0,0,0,0,0,0,0,0,0,0,0,0,0,0,0,0,0,0,0,0,0,0,0,0,0,0,0,0,0,0,0,0,0,0,0,0,0,0,0,0.977,0.976,0.976,0.974,0.973,0.973,0.972,0.97,0.97,0.969,0.969,0.969,0.967,0.967,0.967,0.968,0.968,0.967,0.967,0.967,0.966,0.966,0.965,0.964,0.964,0.963,0.96,0.96,0.956,0.954,0.954,0.953,0.953,0.949,0.949,0.949,0.95,0.954,0.954,0.967,0,0,0,0,0,0,0,0.834,0.831,0.831,0.83,0.83,0.83,0.83,0.83,0.831,0.831,0.833,0.836,0,0.843,0.843,0.847,0.847,0.85,0.852,0.852,0.852,0.852,0.852,0.852,0.852,0.852,0.852,0.852,0.85,0.85,0.849,0.847,0.847,0.844,0.842,0.842,0.839,0.836,0.836,0.836,0.833,0.833,0.832,0.832,0.832,0.832,0.832,0.832,0.832,0.832,0.832,0.832,0.831,0.83,0.83,0.83,0.829,0.829,0.828,0.827,0.827,0.826,0.826,0.826,0.824,0.824,0.823,0.823,0.823,0.823,0.823,0.823,0.822,0.822,0.822,0.823,0.823,0.824,0.824,0.825,0.826,0.826,0.826,0.828,0.828,0.829,0.831,0.843,0.843,0,0,0,0.857,0.857,0.86,0.862,0.852,0.852,0.852,0.854,0.858,0.861,0.861,0.865,0.867,0.87,0.87,0.873,0.877,0.877,0.881,0.883,0.884,0.884,0.885,0.885,0.885,0.886,0.886,0.886,0.886,0.886,0.886,0.885,0.885,0.885,0.883,0.882,0.882,0.882,0.88,0.88,0.879,0.878,0.878,0.876,0.875,0.873,0.873,0.872,0.87,0.87,0.868,0.867,0.867,0.865,0.863,0.863,0.861,0.858,0.858,0.855,0.852,0.852,0.85,0.847,0.847,0.844,0.841,0.841,0.839,0.838,0.838,0.838,0.838,0.837,0.837,0.837,0.838,0.838,0.838,0.838,0,0.839,0.839,0.839,0.836,0.836,0,0,0,0,0,0,0,0,1.419,1.419,1.399,1.382,1.382,1.368,1.355,1.355,1.343,1.334,1.334,1.327,1.324,1.324,1.32,1.32,1.322,1.322,1.322,1.324,1.324,1.325,1.327,1.329,1.329,1.329,1.329,1.329,1.33,1.33,1.33,1.332,1.332,1.334,1.334,1.336,1.337,1.337,1.341,1.344,1.344,1.344,1.344,1.344,1.343,1.341,1.341,1.336,1.327,1.327,1.327,0,0,0,0,0,0,0,0,0,0,0,0,0,0,0,0,0,0,0,0,0,0,0,0,0,0,0,0,0,0,0.963,0.963,0.963,0.961,0.961,0.961,0.96,0.959,0.959,0.959,0.957,0.957,0.956,0.955,0.955,0.953,0.951,0.951,0.949,0.948,0.947,0.947,0.945,0.943,0.943,0.941,0.94,0.94,0.939,0.939,0.939,0.938,0.937,0.937,0.937,0.936,0.936,0.936,0.936,0.936,0.936,0.935,0.935,0.935,0.935,0.935,0.935,0.934,0.933,0.933,0.933,0.932,0.932,0.932,0.932,0.931,0.931,0.931,0.931,0.931,0.93,0.93,0.93,0.93,0.929,0.929,0.929,0.929,0.928,0.928,0.927,0.926,0.926,0.925,0.924,0.924,0.924,0.924,0.922,0.922,0.921,0.92,0.92,0.92,0,0,0,0,0,0,0.907,0.907,0.906,0.905,0.905,0.903,0.903,0.903,0.902,0.902,0.901,0.901,0.901,0.901,0.903,0.903,0.906,0.911,0.919,0.919,0.925,0.932,0.937,0.937,0.943,0.947,0.947,0.948,0.949,0.95,0.949,0.947,0.947,0.945,0.943,0.943,0.941,0.939,0.939,0.935
0,0,0,0,0,0,0,0,0,0,0,0,0,0,0,0,0,0,0,0,0,0,0,0,0,0,0,0,0,0,0,0,0,0,0,0,0,0,0,0,0,0,0,0,0,0,0,0,0,0,0,0,0,0,0,0,0,0,0,0,0,0,0,0,0,0,0,0,0,0,0,0,0,0,0,0,0,0,0,0,0,0,0,0,0,0,0,0,0,0,0,0,0,0,4.06,4.06,4.028,3.981,3.981,3.89,3.804,3.804,3.721,3.721,0,0,0,0,0,0,0,3.554,3.554,3.579,3.566,3.554,3.554,3.554,3.554,3.542,3.542,3.529,3.517,3.517,3.505,3.505,3.505,3.505,3.505,3.505,3.517,3.517,3.529,3.542,3.542,3.554,3.566,3.566,3.566,3.579,3.579,3.579,3.566,3.566,3.554,3.542,3.542,3.529,3.517,3.517,3.517,3.517,3.517,3.517,3.505,3.505,3.505,3.493,3.47,3.47,3.447,3.412,3.412,3.379,3.324,3.324,3.261,3.21,3.21,3.17,3.131,3.131,3.094,3.066,3.066,3.048,3.021,3.021,3.003,2.994,2.994,2.994,2.994,2.994,2.994,2.994,2.994,2.994,2.994,2.994,2.994,2.994,3.003,2.994,2.994,2.994,0,0,0,0,0,0,0,0,0,0,0,0,0,0,0,0,0,0,0,0,0,0,0,0,0,0,0,0,0,0,0,0,0,0,0,0,0,0,0,0,0,0,0,0,0,0,0,0,0,0,0,0,0,0,0,0,0,0,0,0,0,0,0,0.977,0.976,0.976,0.974,0.973,0.973,0.972,0.97,0.97,0.969,0.969,0.969,0.967,0.967,0.967,0.968,0.968,0.967,0.967,0.967,0.967,0.967,0.965,0.965,0.965,0.963,0.962,0.962,0.958,0.957,0.957,0.957,0.957,0.96,0.96,0.96,0.961,0.963,0.963,0.967,0,0,0,0,0,0,0,0.836,0.836,0,0,0.83,0.83,0.83,0.83,0.831,0.831,0.833,0.836,0,0,0.848,0.848,0.848,0.851,0.852,0.854,0.854,0.854,0.854,0.854,0.854,0.854,0.853,0.853,0.851,0.851,0.85,0.847,0.847,0.845,0.842,0.842,0.839,0.836,0.836,0.836,0.833,0.833,0.832,0.832,0.832,0.832,0.832,0.833,0.833,0.833,0.833,0.833,0.833,0.833,0.834,0.834,0.832,0.832,0.832,0.831,0.831,0.83,0.83,0.83,0.83,0.829,0.828,0.828,0.827,0.826,0.826,0.826,0.827,0.827,0.827,0.828,0.828,0.828,0.828,0.83,0.83,0.83,0.833,0.835,0.837,0.837,0.84,0.843,0.843,0,0,0,0.857,0.857,0.86,0.862,0.862,0.862,0.865,0.865,0.868,0.87,0.87,0.873,0.874,0.877,0.877,0.878,0.881,0.881,0.882,0.883,0.884,0.884,0.885,0.885,0.885,0.886,0.886,0.886,0.886,0.886,0.886,0.885,0.885,0.885,0.883,0.882,0.882,0.882,0.88,0.88,0.879,0.878,0.878,0.876,0.875,0.874,0.874,0.873,0.872,0.872,0.87,0.868,0.868,0.867,0.865,0.865,0.863,0.86,0.86,0.857,0.854,0.854,0.851,0.848,0.848,0.845,0.842,0.842,0.839,0.838,0.838,0.838,0.838,0.838,0.838,0.838,0.838,0.838,0.838,0,0,0.84,0.84,0,0,0,0,0,0,0,0,0,0,0,1.419,1.419,1.411,1.395,1.395,1.382,1.371,1.371,1.359,1.35,1.35,1.343,1.339,1.339,1.336,1.334,1.334,1.334,1.334,1.334,1.336,1.336,1.336,1.336,1.336,1.336,1.336,1.336,1.336,1.336,1.336,1.336,1.336,1.337,1.337,1.339,1.341,1.341,1.341,1.344,1.344,1.344,1.346,1.348,1.348,1.344,1.344,1.344,1.337,1.337,1.337,0,0,0,0,0,0,0,0,0,0,0,0,0,0,0,0,0,0,0,0,0,0,0,0,0,0,0,0,0,0,0.963,0.963,0.963,0.961,0.961,0.961,0.96,0.96,0.96,0.959,0.958,0.958,0.957,0.956,0.956,0.955,0.953,0.951,0.951,0.949,0.947,0.947,0.946,0.944,0.944,0.942,0.941,0.941,0.94,0.939,0.939,0.938,0.938,0.938,0.937,0.937,0.936,0.936,0.936,0.936,0.936,0.935,0.935,0.935,0.935,0.935,0.935,0.934,0.933,0.933,0.933,0.932,0.932,0.932,0.932,0.931,0.931,0.931,0.931,0.931,0.931,0.931,0.93,0.93,0.93,0.93,0.93,0.929,0.929,0.929,0.928,0.927,0.927,0.926,0.925,0.925,0.924,0.924,0.922,0.922,0.922,0.92,0.92,0.92,0,0,0,0,0,0,0.907,0.907,0.906,0.905,0.905,0.903,0.903,0.903,0.902,0.902,0.902,0.902,0.902,0.902,0.903,0.903,0.906,0.912,0.919,0.919,0.925,0.932,0.937,0.937,0.943,0.947,0.947,0.949,0.949,0.95,0.949,0.948,0.948,0.947,0.945,0.945,0.943,0.941,0.941,0.938
0,0,0,0,0,0,0,0,0,0,0,0,0,0,0,0,0,0,0,0,0,0,0,0,0,0,0,0,0,0,0,0,0,0,0,0,0,0,0,0,0,0,0,0,0,0,0,0,0,0,0,0,0,0,0,0,0,0,0,0,0,0,0,0,0,0,0,0,0,0,0,0,0,0,0,0,0,0,0,0,0,0,0,0,0,0,0,0,0,0,0,0,0,0,4.06,4.06,4.028,3.981,3.981,3.89,3.804,3.804,3.721,3.655,3.655,3.591,3.517,3.517,3.505,3.505,3.529,3.529,3.554,3.566,3.566,3.554,3.554,3.554,3.554,3.542,3.542,3.529,3.517,3.517,3.505,3.505,3.505,3.505,3.505,3.505,3.517,3.517,3.529,3.542,3.542,3.554,3.566,3.566,3.566,3.579,3.579,3.579,3.566,3.566,3.554,3.542,3.542,3.529,3.517,3.517,3.517,3.517,3.517,3.517,3.505,3.505,3.505,3.493,3.47,3.47,3.447,3.412,3.412,3.379,3.324,3.324,3.261,3.21,3.21,3.17,3.131,3.131,3.094,3.066,3.066,3.048,3.012,3.012,3.003,2.994,2.994,2.986,2.986,2.994,2.994,2.986,2.986,2.986,2.986,2.986,2.994,2.994,2.994,2.994,2.994,2.994,0,0,0,0,0,0,0,0,0,0,0,0,0,0,0,0,0,0,0,0,0,0,0,0,0,0,0,0,0,0,0,0,0,0,0,0,0,0,0,0,0,0,0,0,0,0,0,0,0,0,0,0,0,0,0,0,0,0,0,0,0,0,0,0.974,0.973,0.973,0.973,0.971,0.971,0.97,0.968,0.968,0.968,0.967,0.967,0.966,0.966,0.966,0.966,0.966,0.966,0.966,0.966,0.966,0.966,0.965,0.965,0.965,0.963,0.962,0.962,0.958,0.957,0.957,0.957,0.957,0.96,0.96,0.96,0.961,0.963,0.963,0.967,0.982,0.987,0.987,0,0,0,0,0.836,0.836,0.839,0.839,0.83,0.83,0.829,0.829,0.831,0.831,0.832,0.836,0,0.843,0.843,0.848,0.848,0.851,0.852,0.854,0.854,0.854,0.854,0.854,0.854,0.854,0.853,0.853,0.851,0.851,0.85,0.847,0.847,0.845,0.842,0.842,0.839,0.836,0.836,0.835,0.832,0.832,0.832,0.832,0.832,0.832,0.832,0.833,0.833,0.833,0.833,0.833,0.833,0.833,0.834,0.834,0.832,0.832,0.832,0.831,0.831,0.83,0.83,0.83,0.83,0.829,0.828,0.828,0.827,0.826,0.826,0.826,0.827,0.827,0.827,0.828,0.828,0.828,0.828,0.83,0.83,0.83,0.833,0.835,0.837,0.837,0.84,0.843,0.843,0.856,0.861,0.865,0.857,0.857,0.86,0.862,0.862,0.862,0.865,0.865,0.868,0.87,0.87,0.873,0.874,0.877,0.877,0.878,0.881,0.881,0.882,0.883,0.884,0.884,0.885,0.885,0.885,0.885,0.885,0.885,0.885,0.885,0.885,0.884,0.883,0.883,0.882,0.881,0.881,0.88,0.879,0.879,0.879,0.877,0.877,0.876,0.875,0.874,0.874,0.873,0.872,0.872,0.87,0.868,0.868,0.867,0.865,0.865,0.863,0.86,0.86,0.857,0.854,0.854,0.851,0.848,0.848,0.845,0.842,0.842,0.839,0.838,0.838,0.838,0.838,0.838,0.838,0.838,0.838,0.838,0.838,0,0,0.84,0.84,0,0,0,0,0,0,0,1.438,1.434,1.434,1.426,1.419,1.419,1.409,1.395,1.395,1.382,1.371,1.371,1.359,1.35,1.35,1.343,1.339,1.339,1.336,1.334,1.334,1.334,1.334,1.334,1.336,1.336,1.336,1.336,1.336,1.336,1.336,1.336,1.336,1.336,1.336,1.336,1.336,1.337,1.337,1.339,1.341,1.341,1.341,1.344,1.344,1.344,1.346,1.348,1.348,1.344,1.344,1.344,1.337,1.337,1.337,1.339,0,0,0,0,0,0,0,0,0,0,0,0,0,0,0,0,0,0,0,0,0,0,0,0,0,0,0,0,0.963,0.963,0.962,0.962,0.961,0.961,0.961,0.96,0.96,0.96,0.958,0.958,0.958,0.957,0.956,0.956,0.955,0.953,0.951,0.951,0.949,0.947,0.947,0.946,0.944,0.944,0.942,0.941,0.941,0.94,0.939,0.939,0.938,0.938,0.938,0.937,0.937,0.936,0.936,0.936,0.935,0.935,0.935,0.935,0.935,0.935,0.934,0.934,0.933,0.932,0.932,0.932,0.932,0.932,0.932,0.932,0.931,0.931,0.931,0.931,0.931,0.931,0.931,0.93,0.93,0.93,0.93,0.93,0.929,0.929,0.929,0.928,0.927,0.927,0.926,0.925,0.925,0.924,0.924,0.922,0.922,0.921,0.92,0.92,0.919,0.917,0.917,0.915,0.912,0.912,0.911,0.907,0.907,0.906,0.905,0.905,0.903,0.903,0.903,0.902,0.902,0.902,0.902,0.902,0.902,0.903,0.903,0.906,0.912,0.919,0.919,0.925,0.932,0.937,0.937,0.943,0.947,0.947,0.948,0.949,0.95,0.949,0.948,0.948,0.947,0.945,0.945,0.943,0.941,0.941,0.938
0,0,0,0,0,0,0,0,0,0,0,0,0,0,0,0,0,0,0,0,0,0,0,0,0,0,0,0,0,0,0,0,0,0,0,0,0,0,0,0,0,0,0,0,0,0,0,0,0,0,0,0,0,0,0,0,0,0,0,0,0,0,0,0,0,0,0,0,0,0,0,0,0,0,0,0,0,0,0,0,0,0,0,0,0,0,0,0,0,0,0,0,0,0,4.076,4.076,4.044,4.012,4.012,3.905,3.905,0,0,3.655,3.655,3.579,3.517,3.517,3.505,3.505,3.529,3.529,3.542,3.554,3.554,3.554,3.554,3.554,3.554,3.542,3.542,3.529,3.529,3.529,3.517,3.505,3.505,3.505,3.505,3.517,3.529,3.529,3.542,3.554,3.554,3.566,3.579,3.579,3.579,3.591,3.591,3.579,3.579,3.579,3.554,3.542,3.542,3.529,3.517,3.517,3.517,3.517,3.517,3.517,3.517,3.505,3.505,3.505,3.482,3.482,3.47,3.447,3.447,3.401,3.345,3.345,3.281,3.22,3.22,3.18,3.141,3.141,3.112,3.075,3.075,3.039,3.012,3.012,2.994,2.977,2.977,2.977,2.977,2.977,2.977,2.968,2.968,2.977,2.977,2.986,2.994,2.994,2.994,2.986,2.986,2.986,0,0,0,0,0,0,0,0,0,0,0,0,0,0,0,0,0,0,0,0,0,0,0,0,0,0,0,0,0,0,0,0,0,0,0,0,0,0,0,0,0,0,0.947,0.947,0.947,0.947,0.95,0.95,0.95,0.952,0.953,0.954,0.954,0,0,0,0,0,0,0,0,0,0.971,0.971,0.971,0.971,0.97,0.97,0.97,0.968,0.967,0.967,0.966,0.965,0.965,0.965,0.965,0.965,0.965,0.965,0.965,0.965,0.965,0.966,0.966,0.965,0.965,0.965,0.964,0.962,0.962,0.961,0.961,0.962,0.963,0.963,0.965,0.968,0.968,0.971,0.973,0.977,0.977,0.982,0.987,0.987,0,0,0,0,0,0.839,0.839,0.839,0,0,0.829,0.829,0.831,0.831,0.832,0.836,0.838,0.838,0.843,0.849,0.849,0.853,0.854,0.856,0.856,0.856,0.856,0.856,0.857,0.856,0.856,0.856,0.853,0.853,0.852,0.849,0.849,0.845,0.842,0.842,0.839,0.837,0.837,0.835,0.832,0.832,0.832,0.832,0.832,0.832,0.832,0.834,0.834,0.834,0.834,0.836,0.836,0.837,0.838,0.838,0.839,0.839,0.839,0.838,0.838,0.838,0.838,0.837,0.837,0.836,0.835,0.835,0.833,0.833,0.833,0.832,0.832,0.832,0.833,0.833,0.833,0.834,0.834,0.836,0.837,0.837,0.84,0.843,0.846,0.846,0.849,0.852,0.856,0.856,0.861,0.865,0.865,0.867,0.87,0.872,0.872,0.873,0.875,0.875,0.876,0.876,0.878,0.878,0.879,0.881,0.881,0.882,0.883,0.883,0.883,0.884,0.884,0.884,0.884,0.884,0.884,0.883,0.883,0.883,0.883,0.883,0.883,0.882,0.881,0.881,0.88,0.88,0.88,0.879,0.878,0.878,0.877,0.876,0.876,0.876,0.875,0.875,0.875,0.874,0.873,0.873,0.871,0.87,0.87,0.868,0.867,0.867,0.865,0.862,0.862,0.859,0.856,0.856,0.852,0.849,0.849,0.845,0.843,0.843,0.84,0.838,0.838,0.838,0.838,0.838,0.838,0.838,0.838,0.838,0.838,0,0,0,0,0,0,0,0,0,1.436,1.436,1.436,1.43,1.43,1.425,1.417,1.417,1.409,1.399,1.399,1.39,1.379,1.379,1.369,1.362,1.362,1.353,1.35,1.35,1.346,1.346,1.346,1.346,1.346,1.346,1.346,1.346,1.344,1.344,1.343,1.343,1.343,1.341,1.341,1.341,1.341,1.339,1.339,1.339,1.339,1.341,1.341,1.341,1.343,1.343,1.343,1.343,1.344,1.344,1.344,1.344,1.344,1.344,1.344,1.344,1.339,1.339,0,0,0,0,0,0,0,0,0,0,0,0,0,0,0,0,0,0,0,0,0,0,0,0,0,0,0,0,0.963,0.962,0.962,0.961,0.96,0.96,0.96,0.96,0.959,0.959,0.958,0.958,0.958,0.957,0.956,0.956,0.955,0.953,0.952,0.952,0.95,0.948,0.948,0.947,0.946,0.946,0.944,0.941,0.941,0.941,0.94,0.94,0.939,0.938,0.938,0.937,0.936,0.936,0.936,0.935,0.935,0.935,0.935,0.934,0.934,0.934,0.933,0.933,0.933,0.932,0.932,0.932,0.932,0.932,0.932,0.932,0.932,0.932,0.932,0.932,0.932,0.932,0.932,0.932,0.933,0.933,0.932,0.932,0.932,0.93,0.93,0.929,0.928,0.928,0.928,0.926,0.926,0.925,0.924,0.924,0.924,0.921,0.92,0.92,0.919,0.917,0.917,0.915,0.912,0.912,0.911,0.908,0.908,0.907,0.906,0.906,0.905,0.904,0.903,0.903,0.903,0.903,0.903,0.903,0.903,0.905,0.905,0.907,0.912,0.919,0.919,0.925,0.932,0.938,0.938,0.943,0.946,0.946,0.948,0.95,0.95,0.949,0.948,0.948,0.947,0.945,0.945,0.943,0.941,0.941,0.939
0,0,0,0,0,0,0,0,0,0,0,0,0,0,0,0,0,0,0,0,0,0,0,0,0,0,0,0,0,0,0,0,0,0,0,0,0,0,0,0,0,0,0,0,0,0,0,0,0,0,0,0,0,0,0,0,0,0,0,0,0,0,0,0,0,0,0,0,0,0,0,0,0,0,0,0,0,0,0,0,0,0,0,0,0,0,0,0,0,0,0,0,0,0,0,0,4.06,4.012,4.012,3.92,3.92,0,0,0,0,3.579,3.529,3.529,3.517,3.517,0,3.542,3.542,3.554,3.554,3.554,3.554,3.554,3.554,3.554,3.554,3.542,3.542,3.542,3.529,3.517,3.517,3.517,3.529,3.529,3.554,3.554,3.566,3.579,3.579,3.591,3.591,3.591,3.591,3.604,3.604,3.591,3.579,3.579,3.554,3.542,3.542,3.529,3.517,3.517,3.517,3.517,3.517,3.517,3.517,3.517,3.517,3.517,3.505,3.505,3.493,3.47,3.47,3.424,3.356,3.356,3.292,3.24,3.24,3.24,3.151,3.151,3.112,3.075,3.075,3.039,3.012,3.012,2.994,2.977,2.977,2.977,2.977,2.977,2.977,2.968,2.968,2.977,2.977,0,0,0,2.994,2.986,2.986,2.986,0,0,0,0,0,0,0,0,0,0,0,0,0,0,0,0,0,0,0,0,0,0,0,0,0,0,0,0,0,0,0,0,0,0,0,0,0,0,0,0,0,0,0.947,0.947,0.947,0.947,0.95,0.95,0.95,0.952,0.953,0.954,0.954,0,0,0,0,0,0,0,0,0,0.971,0.971,0.971,0.971,0.97,0.97,0.97,0.968,0.967,0.967,0.966,0.965,0.965,0.965,0.965,0.965,0.965,0.965,0.965,0.965,0.965,0.966,0.966,0.966,0.966,0.966,0.965,0.965,0.965,0.965,0.965,0.967,0.969,0.969,0.973,0.975,0.975,0.977,0.98,0.985,0.985,0.989,0.992,0,0,0,0,0,0,0,0,0,0,0,0,0.831,0.831,0.831,0.832,0.836,0.838,0.838,0.843,0.85,0.854,0.854,0.857,0.858,0.858,0.86,0.86,0.86,0.861,0.861,0.862,0.86,0.857,0.857,0.855,0.852,0.852,0.847,0.843,0.843,0.839,0.837,0.837,0.835,0.833,0.833,0.832,0.832,0.833,0.833,0.833,0.835,0.836,0.836,0.838,0.84,0.84,0.843,0.845,0.847,0.847,0.848,0.848,0.847,0.846,0.846,0.846,0.846,0.846,0.845,0.843,0.843,0.84,0.84,0.839,0.839,0.839,0.84,0.84,0.84,0.84,0.841,0.841,0.843,0.845,0.848,0.848,0.851,0.854,0.854,0.857,0.862,0.865,0.865,0.869,0.872,0.875,0.875,0.876,0.877,0.877,0.877,0.878,0.879,0.879,0.879,0.88,0.88,0.881,0.882,0.882,0.882,0.883,0.883,0.883,0.884,0.885,0.885,0.884,0.884,0.884,0.883,0.883,0.883,0.883,0.883,0.883,0.882,0.881,0.881,0.88,0.88,0.88,0.879,0.878,0.878,0.877,0.876,0.876,0.876,0.875,0.875,0.876,0.875,0.873,0.873,0.873,0.872,0.872,0.87,0.87,0.87,0.867,0.865,0.865,0.861,0.857,0.857,0.854,0.85,0.85,0.846,0.843,0.843,0.84,0.839,0.839,0.838,0.838,0.838,0.838,0.838,0.838,0,0,0,0,0,0,0,0,0,0,0,1.436,1.436,1.436,1.43,1.43,1.425,1.417,1.417,1.411,1.399,1.399,1.394,1.384,1.384,1.377,1.371,1.371,1.364,1.36,1.36,1.359,1.357,1.357,1.357,1.355,1.353,1.353,1.353,1.351,1.351,1.35,1.348,1.348,1.346,1.344,1.344,1.344,1.343,1.343,1.343,1.341,1.341,1.343,1.343,1.343,1.343,1.343,1.343,1.344,1.344,1.344,1.344,1.344,1.344,1.344,0,0,0,0,0,0,0,0,0,0,0,0,0,0,0,0,0,0,0,0,0,0,0,0,0,0,0,0,0,0,0,0.963,0.962,0.962,0.961,0.96,0.96,0.96,0.96,0.959,0.959,0.959,0.958,0.958,0.957,0.957,0.957,0.955,0.954,0.953,0.953,0.951,0.95,0.95,0.948,0.947,0.947,0.944,0.942,0.942,0.941,0.94,0.94,0.939,0.938,0.938,0.938,0.936,0.936,0.936,0.935,0.935,0.935,0.935,0.934,0.934,0.934,0.933,0.933,0.933,0.932,0.932,0.933,0.932,0.932,0.933,0.933,0.933,0.933,0.933,0.933,0.933,0.933,0.933,0.934,0.934,0.934,0.933,0.933,0.933,0.932,0.932,0.93,0.929,0.929,0.929,0.927,0.927,0.926,0.925,0.924,0.924,0.923,0.921,0.921,0.919,0.918,0.918,0.915,0.914,0.914,0.912,0.91,0.91,0.908,0.908,0.908,0.907,0.906,0.905,0.905,0.905,0.905,0.905,0.905,0.906,0.907,0.907,0.91,0.915,0.921,0.921,0.926,0.933,0.938,0.938,0.943,0.946,0.946,0.948,0.95,0.95,0.949,0.948,0.948,0.947,0.945,0.945,0.943,0.941,0.941,0.939
0,0,0,0,0,0,0,0,0,0,0,0,0,0,0,0,0,0,0,0,0,0,0,0,0,0,0,0,0,0,0,0,0,0,0,0,0,0,0,0,0,0,0,0,0,0,0,0,0,0,0,0,0,0,0,0,0,0,0,0,0,0,0,0,0,0,0,0,0,0,0,0,0,0,0,0,0,0,0,0,0,0,0,0,0,0,0,0,0,0,0,0,0,0,0,0,4.044,3.981,3.981,3.876,3.776,3.776,3.776,0,0,3.579,3.529,3.529,3.517,3.517,3.517,3.517,3.517,3.529,3.529,3.542,3.542,3.542,3.542,3.542,3.542,3.542,3.542,3.542,3.529,3.517,3.517,3.517,3.529,3.529,3.554,3.554,3.566,3.579,3.579,3.591,3.591,3.591,3.591,3.591,3.591,3.591,3.579,3.579,3.554,3.542,3.542,3.517,3.517,3.517,3.517,3.517,3.517,3.517,3.517,3.517,3.517,3.517,3.505,3.505,3.493,3.47,3.47,3.424,3.356,3.356,3.292,3.24,3.24,3.18,3.141,3.141,3.103,3.066,3.066,3.03,3.003,3.003,2.986,2.968,2.968,2.96,2.96,2.951,2.951,2.943,2.943,2.977,2.977,0,0,0,2.994,2.986,2.986,2.986,0,0,0,0,0,0,0,0,0,0,0,0,0,0,0,0,0,0,0,0,0,0,0,0,0,0,0,0,0,0,0,0,0,0,0,0,0,0,0,0,0,0,0.947,0.947,0.947,0.947,0.95,0.95,0.95,0.952,0.953,0.954,0.954,0.955,0.956,0.956,0.958,0,0,0.966,0.966,0.968,0.968,0.969,0.969,0.968,0.968,0.968,0.969,0.968,0.965,0.965,0.965,0.964,0.964,0.964,0.963,0.963,0.963,0.963,0.964,0.965,0.965,0.965,0.966,0.966,0.966,0.966,0.965,0.965,0.965,0.965,0.965,0.967,0.969,0.969,0.973,0.975,0.975,0.977,0.98,0.985,0.985,0.989,0.992,0.996,0.996,0.997,0.997,0.997,0.998,0,0,0,0,0,0,0.831,0.831,0.831,0.832,0.836,0.838,0.838,0.843,0.85,0.854,0.854,0.857,0.858,0.858,0.86,0.86,0.86,0.861,0.861,0.862,0.86,0.857,0.857,0.855,0.852,0.852,0.847,0.843,0.843,0.839,0.837,0.837,0.835,0.833,0.833,0.832,0.832,0.833,0.833,0.833,0.835,0.836,0.836,0.838,0.84,0.84,0.843,0.845,0.847,0.847,0.848,0.848,0.847,0.846,0.846,0.846,0.846,0.846,0.845,0.843,0.843,0.84,0.84,0.839,0.839,0.839,0.84,0.84,0.84,0.84,0.841,0.841,0.843,0.845,0.848,0.848,0.851,0.854,0.854,0.857,0.862,0.865,0.865,0.869,0.872,0.875,0.875,0.876,0.877,0.877,0.877,0.878,0.879,0.879,0.879,0.88,0.88,0.881,0.882,0.882,0.882,0.883,0.883,0.883,0.884,0.884,0.884,0.883,0.883,0.883,0.882,0.882,0.882,0.882,0.882,0.882,0.881,0.879,0.879,0.879,0.878,0.878,0.877,0.876,0.876,0.876,0.875,0.875,0.875,0.875,0.875,0.875,0.875,0.873,0.873,0.873,0.872,0.872,0.87,0.87,0.87,0.867,0.865,0.865,0.861,0.857,0.857,0.854,0.85,0.85,0.846,0.843,0.843,0.84,0.839,0.839,0.838,0.838,0.838,0.838,0.838,0.838,0.84,0.84,0,0,0,0,0,0,0,0,0,1.432,1.432,1.432,1.426,1.426,1.423,1.417,1.417,1.411,1.399,1.399,1.394,1.384,1.384,1.377,1.371,1.371,1.364,1.36,1.36,1.359,1.357,1.357,1.357,1.355,1.353,1.353,1.353,1.351,1.351,1.35,1.348,1.348,1.346,1.344,1.344,1.344,1.343,1.343,1.343,1.341,1.341,1.343,1.343,1.343,1.343,1.341,1.341,1.341,1.341,1.341,1.341,1.341,1.341,1.344,0,0,0,0,0,0,0,0,0,0,0,0,0,0,0,0,0,0,0,0,0,0,0,0,0,0,0,0,0.966,0.963,0.963,0.963,0.962,0.962,0.96,0.96,0.96,0.96,0.96,0.959,0.959,0.959,0.958,0.958,0.957,0.957,0.957,0.955,0.954,0.953,0.953,0.951,0.95,0.95,0.948,0.947,0.947,0.944,0.942,0.942,0.941,0.94,0.94,0.939,0.937,0.937,0.937,0.936,0.935,0.935,0.935,0.935,0.935,0.934,0.934,0.934,0.933,0.933,0.933,0.932,0.932,0.932,0.932,0.932,0.932,0.933,0.933,0.933,0.933,0.933,0.933,0.933,0.933,0.933,0.934,0.934,0.934,0.933,0.933,0.933,0.932,0.932,0.93,0.929,0.929,0.929,0.927,0.927,0.926,0.925,0.924,0.924,0.923,0.921,0.921,0.919,0.918,0.918,0.915,0.914,0.914,0.912,0.91,0.91,0.908,0.908,0.908,0.907,0.906,0.905,0.905,0.905,0.905,0.905,0.905,0.906,0.907,0.907,0.91,0.915,0.921,0.921,0.926,0.933,0.938,0.938,0.943,0.946,0.946,0.948,0.949,0.95,0.949,0.948,0.948,0.947,0.945,0.945,0.943,0.941,0.941,0.939
0,0,0,0,0,0,0,0,0,0,0,0,0,0,0,0,0,0,0,0,0,0,0,0,0,0,0,0,0,0,0,0,0,0,0,0,0,0,0,0,0,0,0,0,0,0,0,0,0,0,0,0,0,0,0,0,0,0,0,0,0,0,0,0,0,0,0,0,0,0,0,0,0,0,0,0,0,0,0,0,0,0,0,0,0,0,0,0,0,0,0,0,0,0,0,0,4.044,3.981,3.981,3.876,3.776,3.776,3.776,0,0,3.554,3.517,3.517,3.493,3.493,3.493,3.493,3.505,3.517,3.517,3.517,3.517,3.517,3.517,3.529,3.529,3.529,3.542,3.542,3.529,3.529,3.529,3.529,3.542,3.554,3.566,3.566,3.579,3.604,3.604,3.604,3.604,3.604,3.604,3.591,3.591,3.579,3.566,3.566,3.554,3.542,3.542,3.517,3.517,3.517,3.517,3.517,3.517,3.517,3.517,3.517,3.517,3.517,3.517,3.517,3.505,3.482,3.482,3.424,3.356,3.356,3.292,3.23,3.23,3.18,3.141,3.141,3.103,3.066,3.066,3.03,3.003,3.003,2.986,2.968,2.968,2.96,2.96,2.951,2.951,2.943,2.943,0,0,0,0,0,0,0,0,0,0,0,0,0,0,0,0,0,0,0,0,0,0,0,0,0,0,0,0,0,0,0,0,0,0,0,0,0,0,0,0,0,0,0,0,0,0,0,0,0,0,0,0.948,0.948,0.949,0.949,0.95,0.952,0.952,0.952,0.953,0.955,0.955,0.955,0.956,0.956,0.958,0.96,0.963,0.963,0.965,0.968,0.968,0.968,0.968,0.968,0.967,0.967,0.968,0.967,0.964,0.964,0.963,0.963,0.963,0.963,0.963,0.963,0.963,0.963,0.963,0.964,0.964,0.965,0.966,0.966,0.967,0.968,0.968,0.968,0.969,0.97,0.97,0.972,0.974,0.974,0.977,0.98,0.981,0.981,0.984,0.989,0.989,0.99,0.994,0.996,0.996,0.997,0.997,0.997,0.997,0.999,0.999,0.999,0,0,0,0,0,0,0,0,0,0,0,0,0,0,0.862,0.862,0.862,0.865,0.865,0.867,0.867,0.869,0.869,0.867,0.864,0.864,0.86,0.857,0.857,0.85,0.845,0.845,0.84,0.837,0.837,0.835,0.834,0.834,0.834,0.834,0.834,0.834,0.835,0.838,0.84,0.84,0.843,0.846,0.846,0.849,0.853,0.855,0.855,0.858,0.858,0.858,0.856,0.856,0,0.854,0.853,0.853,0.851,0.849,0.849,0.849,0.847,0.847,0.847,0.848,0.849,0.849,0.849,0.851,0.851,0.851,0.852,0.855,0.855,0.858,0.861,0.864,0.864,0.867,0.87,0.87,0.873,0.876,0.877,0.877,0.878,0.878,0.878,0.879,0.879,0.879,0.879,0.88,0.881,0.881,0.882,0.882,0.882,0.882,0.882,0.883,0.883,0.883,0.883,0.883,0.882,0.882,0.882,0.882,0.882,0.882,0.881,0.881,0.881,0.879,0.878,0.878,0.877,0.876,0.876,0.876,0.875,0.875,0.874,0.873,0.873,0.873,0.873,0.874,0.875,0.875,0.874,0.874,0.873,0.873,0.873,0.873,0.871,0.871,0.87,0.867,0.867,0.864,0.86,0.86,0.856,0.852,0.852,0.847,0.844,0.844,0.84,0.839,0.839,0.838,0.838,0.837,0.837,0.837,0.838,0.838,0.838,0,0,0,0,0,0,0,0,0,1.432,1.432,1.432,1.426,1.426,1.423,1.405,1.405,1.403,1.401,1.401,1.397,1.392,1.392,1.384,1.379,1.379,1.373,1.369,1.368,1.368,1.364,1.364,1.364,1.362,1.362,1.362,1.36,1.357,1.357,1.355,1.353,1.353,1.351,1.35,1.348,1.348,1.344,1.343,1.343,1.343,1.343,1.343,1.341,1.341,1.341,1.339,1.339,1.339,1.341,1.341,1.341,1.341,1.341,0,0,0,0,0,0,0,0,0,0,0,0,0,0,0,0,0,0,0,0,0,0,0,0,0,0,0,0.971,0.971,0.966,0.963,0.963,0.963,0.962,0.962,0.96,0.959,0.959,0.96,0.959,0.959,0.959,0.959,0.958,0.958,0.958,0.957,0.957,0.956,0.955,0.953,0.953,0.952,0.95,0.95,0.948,0.947,0.947,0.945,0.942,0.942,0.941,0.939,0.939,0.938,0.937,0.937,0.935,0.935,0.935,0.935,0.934,0.934,0.934,0.934,0.934,0.934,0.933,0.933,0.933,0.932,0.932,0.932,0.932,0.932,0.932,0.933,0.933,0.934,0.934,0.934,0.934,0.934,0.934,0.935,0.935,0.935,0.935,0.934,0.934,0.934,0.932,0.932,0.931,0.93,0.93,0.93,0.929,0.927,0.927,0.925,0.924,0.924,0.923,0.922,0.922,0.92,0.919,0.919,0.916,0.915,0.915,0.913,0.911,0.911,0.909,0.908,0.908,0.908,0.907,0.907,0.907,0.906,0.906,0.907,0.907,0.908,0.911,0.911,0.914,0.919,0.924,0.924,0.93,0.936,0.941,0.941,0.945,0.947,0.947,0.949,0.949,0.95,0.95,0.948,0.948,0.947,0.945,0.945,0.944,0.942,0.942,0.939
0,0,0,0,0,0,0,0,0,0,0,0,0,0,0,0,0,0,0,0,0,0,0,0,0,0,0,0,0,0,0,0,0,0,0,0,0,0,0,0,0,0,0,0,0,0,0,0,0,0,0,0,0,0,0,0,0,0,0,0,0,0,0,0,0,0,0,0,0,0,0,0,0,0,0,0,0,0,0,0,0,0,0,0,0,0,0,0,0,0,0,0,0,0,0,0,0,0,0,0,0,0,0,0,0,3.554,3.517,3.517,3.493,3.493,3.493,3.493,3.505,3.517,3.517,3.517,3.517,3.517,3.517,3.529,3.529,3.529,3.542,3.542,3.542,3.542,3.554,3.554,3.554,3.566,3.579,3.579,3.604,3.616,3.616,3.616,3.616,3.604,3.604,3.591,3.591,3.579,3.566,3.566,3.554,3.542,3.542,3.517,3.517,3.517,3.517,3.517,3.517,3.517,3.517,3.529,3.529,3.529,3.517,3.517,3.517,3.482,3.482,3.424,3.356,3.356,3.292,3.23,3.23,3.18,3.141,3.141,3.103,3.075,3.075,3.039,3.003,3.003,2.986,2.986,0,0,0,0,0,0,0,0,0,0,0,0,0,0,0,0,0,0,0,0,0,0,0,0,0,0,0,0,0,0,0,0,0,0,0,0,0,0,0,0,0,0,0,0,0,0,0,0,0,0,0,0,0,0,0,0,0,0,0.949,0.949,0.95,0.95,0.951,0.953,0.953,0.953,0.955,0.955,0.955,0.956,0.957,0.957,0.958,0.96,0.963,0.963,0.965,0.968,0.968,0.968,0.968,0.968,0.967,0.967,0.968,0.967,0.964,0.964,0.963,0.963,0.963,0.963,0.963,0.963,0.963,0.963,0.963,0.964,0.964,0.965,0.966,0.966,0.968,0.969,0.969,0.969,0.97,0.972,0.972,0.974,0.976,0.976,0.982,0.982,0.984,0.984,0.986,0.99,0.99,0.992,0.995,0.997,0.997,0.997,0.997,0.997,0.997,0.999,0.999,0.999,0,0,0,0,0,0,0,0,0,0,0,0,0,0,0.867,0.867,0.867,0.872,0.873,0.873,0.873,0.874,0.876,0.872,0.866,0.866,0.866,0.859,0.859,0.85,0.845,0.845,0.84,0.838,0.838,0.837,0.836,0.836,0.836,0.836,0.836,0.836,0.838,0.841,0.845,0.845,0.849,0.853,0.857,0.857,0.861,0.865,0.865,0.867,0.867,0.867,0.866,0.866,0,0.865,0.862,0.862,0.86,0.858,0.858,0.857,0.857,0.857,0.857,0.857,0.857,0,0.857,0.857,0.859,0.859,0.861,0.862,0.864,0.864,0.866,0.869,0.869,0.87,0.873,0.875,0.875,0.876,0.878,0.878,0.878,0.878,0.878,0.879,0.879,0.88,0.88,0.88,0.881,0.881,0.882,0.882,0.882,0.882,0.882,0.883,0.883,0.883,0.883,0.883,0.882,0.882,0.882,0.882,0.882,0.882,0.881,0.881,0.881,0.879,0.878,0.878,0.877,0.876,0.876,0.876,0.875,0.875,0.874,0.873,0.873,0.873,0.873,0.874,0.875,0.875,0.875,0.875,0.875,0.874,0.874,0.874,0.873,0.873,0.872,0.87,0.87,0.867,0.862,0.862,0.858,0.853,0.853,0.849,0.844,0.844,0.84,0.839,0.839,0.838,0.838,0.837,0.837,0.837,0.838,0.838,0.838,0,0,0,0,0,0,0,0,0,0,0,0,0,0,0,1.392,1.392,1.392,1.394,1.394,1.394,1.394,1.394,1.388,1.384,1.384,1.379,1.377,1.375,1.375,1.373,1.371,1.371,1.369,1.369,1.369,1.366,1.362,1.362,1.36,1.359,1.359,1.355,1.353,1.35,1.35,1.346,1.344,1.344,1.343,1.343,1.343,1.341,1.341,1.341,1.339,1.339,1.339,0,0,0,0,0,0,0,0,0,0,0,0,0,0,0,0,0,0,0,0,0,0,0,0,0,0,0,0,0,0,0,0,0.971,0.971,0.967,0.964,0.964,0.963,0.962,0.962,0.96,0.959,0.959,0.96,0.959,0.959,0.959,0.959,0.959,0.959,0.958,0.957,0.957,0.957,0.955,0.954,0.954,0.953,0.951,0.951,0.948,0.947,0.947,0.945,0.942,0.942,0.941,0.939,0.939,0.938,0.937,0.937,0.935,0.935,0.935,0.935,0.934,0.934,0.934,0.934,0.934,0.934,0.933,0.933,0.933,0.933,0.933,0.933,0.933,0.933,0.934,0.934,0.934,0.935,0.935,0.935,0.935,0.935,0.935,0.935,0.936,0.936,0.936,0.935,0.935,0.935,0.934,0.934,0.933,0.931,0.931,0.931,0.929,0.928,0.928,0.927,0.925,0.925,0.924,0.923,0.923,0.921,0.919,0.919,0.918,0.915,0.915,0.914,0.911,0.911,0.911,0.91,0.91,0.909,0.909,0.908,0.908,0.908,0.909,0.91,0.91,0.911,0.915,0.915,0.919,0.923,0.928,0.928,0.934,0.94,0.943,0.943,0.946,0.948,0.948,0.949,0.951,0.951,0.951,0.95,0.95,0.948,0.947,0.947,0.946,0.944,0.944,0.941
0,0,0,0,0,0,0,0,0,0,0,0,0,0,0,0,0,0,0,0,0,0,0,0,0,0,0,0,0,0,0,0,0,0,0,0,0,0,0,0,0,0,0,0,0,0,0,0,0,0,0,0,0,0,0,0,0,0,0,0,0,0,0,0,0,0,0,0,0,0,0,0,0,0,0,0,0,0,0,0,0,0,0,0,0,0,0,0,0,0,0,0,0,0,0,0,0,0,0,0,3.694,3.694,3.629,3.579,3.579,3.542,3.505,3.505,3.482,3.482,3.482,3.482,3.482,3.493,3.493,3.493,3.493,3.493,3.493,3.505,3.517,3.517,3.542,3.542,3.542,3.542,3.554,3.554,3.554,3.566,3.579,3.579,3.604,3.616,3.616,3.616,3.616,3.604,3.604,3.591,3.591,3.579,3.566,3.566,3.554,3.542,3.542,3.517,3.517,3.517,3.517,3.517,3.517,3.517,3.517,3.517,3.517,3.517,3.517,3.517,3.517,3.47,3.47,3.424,3.345,3.345,3.271,3.22,3.22,3.17,3.131,3.131,3.103,3.075,3.075,3.039,3.003,3.003,2.986,2.986,0,0,0,0,0,0,0,0,0,0,0,0,0,0,0,0,0,0,0,0,0,0,0,0,0,0,0,0,0,0,0,0,0,0,0,0,0,0,0,0,0,0,0,0.895,0.895,0.899,0.899,0.903,0.912,0.912,0.912,0,0,0,0.941,0.941,0.945,0.947,0.947,0.949,0.95,0.95,0.951,0.953,0.953,0.953,0.955,0.955,0.955,0.956,0.957,0.957,0.958,0.96,0.963,0.963,0.964,0.966,0.966,0.966,0.966,0.966,0.966,0.965,0.965,0.965,0.964,0.964,0.963,0.963,0.963,0.963,0.963,0.963,0.963,0.963,0.963,0.964,0.964,0.965,0.966,0.966,0.968,0.969,0.969,0.969,0.97,0.972,0.972,0.974,0.976,0.976,0.982,0.982,0.984,0.984,0.986,0.99,0.99,0.992,0.995,0.997,0.997,0.997,0.997,0.997,0.997,0.998,0.998,0.999,1,1,1,0,0,0,0,0,0,0,0,0,0,0,0.867,0.867,0.867,0.872,0.873,0.873,0.873,0.874,0.876,0.872,0.866,0.866,0.866,0.859,0.859,0.85,0.845,0.845,0.84,0.838,0.838,0.837,0.836,0.836,0.836,0.836,0.836,0.836,0.838,0.841,0.845,0.845,0.849,0.853,0.857,0.857,0.861,0.865,0.865,0.867,0.867,0.867,0.866,0.866,0.873,0.865,0.862,0.862,0.86,0.858,0.858,0.857,0.857,0.857,0.857,0.857,0.857,0.865,0.857,0.857,0.859,0.859,0.861,0.862,0.864,0.864,0.866,0.869,0.869,0.87,0.873,0.875,0.875,0.876,0.878,0.878,0.878,0.878,0.878,0.879,0.879,0.88,0.88,0.88,0.881,0.881,0.881,0.882,0.882,0.882,0.882,0.882,0.882,0.882,0.882,0.882,0.882,0.882,0.882,0.881,0.881,0.881,0.88,0.88,0.879,0.879,0.877,0.877,0.876,0.875,0.875,0.874,0.873,0.873,0.873,0.873,0.873,0.872,0.872,0.873,0.874,0.874,0.875,0.875,0.875,0.874,0.874,0.874,0.873,0.873,0.872,0.87,0.869,0.867,0.862,0.862,0.858,0.853,0.853,0.849,0.844,0.844,0.84,0.839,0.839,0.838,0.837,0.837,0.836,0.836,0.836,0.836,0.836,0,0,0,0,0,0,0,0,0,0,0,0,0,0,0,1.392,1.392,1.392,1.394,1.394,1.394,1.395,1.395,1.392,1.388,1.384,1.384,1.382,1.379,1.379,1.377,1.377,1.377,1.375,1.373,1.373,1.369,1.368,1.368,1.364,1.362,1.362,1.359,1.355,1.351,1.351,1.348,1.346,1.346,1.344,1.344,1.344,1.343,1.341,1.341,1.341,0,0,0,0,0,0,0,0,0,0,0,0,0,0,0,0,0,0,0,1.017,1.017,1.012,1.012,0,0,1,1,0.996,0.996,0,0,0,0,0.976,0.971,0.971,0.967,0.964,0.964,0.963,0.961,0.961,0.96,0.959,0.959,0.959,0.959,0.959,0.959,0.959,0.959,0.959,0.958,0.957,0.957,0.957,0.955,0.954,0.954,0.952,0.95,0.95,0.948,0.947,0.947,0.944,0.941,0.941,0.94,0.939,0.939,0.937,0.936,0.936,0.935,0.934,0.934,0.933,0.933,0.933,0.933,0.933,0.933,0.934,0.933,0.933,0.933,0.933,0.933,0.933,0.933,0.933,0.934,0.934,0.934,0.935,0.935,0.935,0.935,0.935,0.935,0.935,0.936,0.936,0.936,0.935,0.935,0.935,0.934,0.934,0.933,0.931,0.931,0.931,0.929,0.928,0.928,0.927,0.925,0.925,0.924,0.923,0.923,0.921,0.919,0.919,0.918,0.915,0.915,0.914,0.911,0.911,0.911,0.91,0.91,0.909,0.909,0.908,0.908,0.908,0.909,0.91,0.91,0.911,0.915,0.915,0.919,0.923,0.928,0.928,0.934,0.942,0.946,0.946,0.948,0.95,0.95,0.95,0.952,0.952,0.952,0.951,0.951,0.951,0.949,0.949,0.948,0.946,0.946,0.943
0,0,0,0,0,0,0,0,0,0,0,0,0,0,0,0,0,0,0,0,0,0,0,0,0,0,0,0,0,0,0,0,0,0,0,0,0,0,0,0,0,0,0,0,0,0,0,0,0,0,0,0,0,0,0,0,0,0,0,0,0,0,0,0,0,0,0,0,0,0,0,0,0,0,0,0,0,0,0,0,0,0,0,0,0,0,0,0,0,0,0,0,0,0,0,0,0,0,0,0,3.694,3.668,3.616,3.579,3.566,3.529,3.505,3.505,3.482,3.47,3.47,3.458,3.458,3.47,3.458,3.458,3.47,3.47,3.482,3.482,3.493,3.493,3.517,3.542,3.542,3.554,3.554,3.554,3.566,3.579,3.591,3.591,3.616,3.629,3.629,3.629,3.629,3.616,3.604,3.604,3.604,3.591,3.579,3.579,3.554,3.542,3.542,3.529,3.517,3.517,3.517,3.517,3.517,3.517,3.517,3.517,3.517,3.517,3.517,3.517,3.505,3.47,3.47,3.424,3.345,3.345,3.271,3.22,3.22,3.17,3.131,3.131,3.103,3.103,0,0,0,0,0,0,0,0,0,0,0,0,0,0,0,0,0,0,0,0,0,0,0,0,0,0,0,0,0,0,0,0,0,0,0,0,0,0,0,0,0,0,0,0,0,0.889,0.889,0.892,0,0.895,0.895,0.899,0.899,0.903,0.912,0.912,0.912,0.922,0.929,0,0.941,0.941,0.945,0.947,0.947,0.95,0.951,0.951,0.952,0.954,0.954,0.954,0.955,0.956,0.956,0.957,0.958,0.958,0.959,0.961,0.963,0.963,0.964,0.965,0.965,0.965,0.966,0.966,0.966,0.965,0.965,0.965,0.964,0.964,0.963,0.963,0.963,0.963,0.963,0.963,0.963,0.963,0.963,0.964,0.964,0.965,0.967,0.967,0.969,0.97,0.97,0.971,0.971,0.974,0.974,0.976,0.978,0.978,0.982,0.984,0.985,0.985,0.988,0.991,0.991,0.993,0.996,0.997,0.997,0.998,0.998,0.998,0.998,0.998,0.998,0.999,0.999,1,1,1,1,1,1,0,0.999,0.999,0,0,0,0,0,0,0,0.876,0.876,0.876,0.876,0.879,0.88,0.88,0.875,0.875,0.919,0.867,0.867,0.856,0.85,0.85,0.842,0.839,0.839,0.838,0.836,0.836,0.836,0.837,0.838,0.838,0.839,0.844,0.849,0.849,0.854,0.859,0.864,0.864,0.872,0.872,0.874,0.874,0.876,0.876,0.874,0.873,0.873,0.871,0.87,0.87,0.868,0.866,0.866,0.864,0.864,0.865,0.865,0.865,0.865,0.865,0.865,0.865,0.866,0.866,0.867,0.868,0.87,0.87,0.871,0.873,0.873,0.873,0.875,0.876,0.876,0.878,0.878,0.878,0.879,0.879,0.879,0.879,0.88,0.88,0.88,0.88,0.881,0.881,0.881,0.882,0.882,0.882,0.882,0.882,0.882,0.882,0.882,0.882,0.882,0.882,0.881,0.88,0.88,0.88,0.88,0.88,0.879,0.878,0.876,0.876,0.876,0.875,0.875,0.873,0.873,0.873,0.873,0.872,0.872,0.872,0.872,0.873,0.874,0.874,0.875,0.875,0.875,0.876,0.876,0.876,0.875,0.875,0.874,0.872,0.869,0.869,0.865,0.863,0.861,0.855,0.855,0.85,0.845,0.845,0.842,0.84,0.84,0.838,0.836,0.836,0.835,0.834,0.834,0.835,0.835,0,0,0,0,0,0,0,0,0,0,0,0,0,1.368,1.368,1.377,1.38,1.38,1.386,1.392,1.392,1.394,1.394,1.392,1.388,1.384,1.384,1.382,1.379,1.379,1.377,1.377,1.377,1.375,1.373,1.373,1.369,1.368,1.368,1.364,1.362,1.36,1.359,1.355,1.351,1.351,1.348,1.346,1.346,1.344,1.344,1.344,1.343,1.341,1.341,1.341,0,0,0,0,0,0,0,0,0,0,0,0,0,0,0,0,1.018,1.018,1.017,1.012,1.012,1.009,1.009,0,0,1,1,0.995,0.99,0.99,0.985,0.981,0.981,0.976,0.972,0.972,0.967,0.964,0.964,0.963,0.961,0.961,0.96,0.959,0.959,0.959,0.959,0.959,0.959,0.959,0.959,0.959,0.958,0.958,0.958,0.957,0.956,0.954,0.954,0.952,0.95,0.95,0.948,0.946,0.946,0.944,0.941,0.941,0.939,0.938,0.938,0.936,0.935,0.935,0.934,0.933,0.933,0.932,0.932,0.933,0.933,0.933,0.933,0.934,0.933,0.933,0.933,0.933,0.934,0.934,0.935,0.935,0.935,0.935,0.935,0.935,0.936,0.936,0.936,0.937,0.938,0.937,0.937,0.938,0.937,0.937,0.937,0.936,0.935,0.935,0.935,0.933,0.933,0.932,0.931,0.929,0.929,0.929,0.927,0.927,0.925,0.924,0.924,0.921,0.92,0.92,0.919,0.918,0.918,0.915,0.914,0.914,0.912,0.912,0.911,0.911,0.911,0.911,0.911,0.911,0.911,0.913,0.913,0.915,0.919,0.923,0.923,0.927,0.932,0.932,0.937,0.942,0.946,0.946,0.948,0.95,0.95,0.95,0.952,0.952,0.952,0.951,0.951,0.951,0.949,0.949,0.948,0.946,0.946,0.943
0,0,0,0,0,0,0,0,0,0,0,0,0,0,0,0,0,0,0,0,0,0,0,0,0,0,0,0,0,0,0,0,0,0,0,0,0,0,0,0,0,0,0,0,0,0,0,0,0,0,0,0,0,0,0,0,0,0,0,0,0,0,0,0,0,0,0,0,0,0,0,0,0,0,0,0,0,0,0,0,0,0,0,0,0,0,0,0,0,0,0,0,0,0,0,0,0,0,0,0,0,3.642,3.604,3.604,3.566,3.529,3.505,3.505,3.47,3.447,3.447,3.447,3.447,3.447,3.435,3.435,3.435,3.435,3.447,3.458,3.47,3.47,3.493,3.517,3.517,3.542,3.566,3.566,3.579,3.591,3.616,3.616,3.629,3.629,3.629,3.642,3.642,3.629,3.629,3.616,3.616,3.604,3.591,3.591,3.579,3.554,3.554,3.529,3.517,3.517,3.517,3.517,3.517,3.517,3.517,3.505,3.505,3.505,3.517,3.517,3.505,3.47,3.47,3.424,3.345,3.345,3.345,0,0,0,0,0,0,0,0,0,0,0,0,0,0,0,0,0,0,0,0,0,0,0,0,0,0,0,0,0,0,0,0,0,0,0,0,0,0,0,0,0,0,0,0,0,0,0,0,0,0,0,0,0.889,0.889,0.892,0,0.899,0.899,0.903,0.903,0.907,0.912,0.915,0.915,0.922,0.929,0,0.941,0.941,0.945,0.948,0.948,0.95,0.951,0.951,0.953,0.954,0.954,0.954,0.956,0.957,0.957,0.957,0.959,0.959,0.96,0.962,0.963,0.963,0.964,0.965,0.965,0.965,0.966,0.966,0.966,0.966,0.966,0.965,0.964,0.964,0.964,0.963,0.963,0.963,0.963,0.963,0.963,0.963,0.964,0.965,0.965,0.966,0.968,0.968,0.97,0.972,0.972,0.973,0.974,0.974,0.974,0.977,0.98,0.98,0.983,0.985,0.987,0.987,0.989,0.992,0.992,0.995,0.997,0.998,0.998,0.998,0.999,0.998,0.998,0.999,0.999,0.999,0.999,1,1,1,1,1,1,1,0.999,0.999,0.999,0.995,0.994,0.994,0.977,0.965,0.965,0.929,0.929,0.888,0.888,0.888,0.888,0.888,0.888,0.891,0.919,0.919,0.919,0,0,0,0,0,0,0.838,0.837,0.837,0.837,0.839,0.84,0.843,0.843,0.849,0.855,0.855,0.861,0.867,0.871,0.871,0.876,0.879,0.882,0.882,0.882,0.882,0.881,0.879,0.878,0.878,0.876,0.874,0.874,0.872,0.87,0.87,0.87,0.869,0.869,0.869,0.87,0.87,0.87,0.87,0.871,0.873,0.873,0.873,0.875,0.875,0.875,0.876,0.876,0.877,0.877,0.878,0.878,0.879,0.879,0.879,0.879,0.88,0.88,0.88,0.88,0.88,0.88,0.88,0.881,0.881,0.881,0.881,0.881,0.881,0.882,0.882,0.882,0.882,0.882,0.882,0.881,0.881,0.881,0.88,0.88,0.88,0.879,0.879,0.879,0.877,0.876,0.876,0.875,0.874,0.874,0.873,0.873,0.873,0.873,0.872,0.872,0.872,0.872,0.873,0.874,0.874,0.875,0.875,0.875,0.876,0.876,0.876,0.876,0.876,0.876,0.874,0.871,0.871,0.867,0.863,0.863,0.858,0.858,0.853,0.847,0.847,0.843,0.84,0.84,0.838,0.836,0.836,0.835,0.834,0.834,0.834,0.834,0.834,0,0,0,0,0,0,0,0,0,0,0,0,1.368,1.357,1.357,1.357,1.366,1.375,1.386,1.386,1.39,1.394,1.392,1.39,1.388,1.388,1.384,1.382,1.382,1.38,1.379,1.379,1.377,1.375,1.375,1.373,1.369,1.369,1.368,1.364,1.36,1.36,1.359,1.355,1.355,1.35,1.348,1.348,1.346,1.346,1.346,1.344,1.344,0,0,0,0,0,0,0,0,0,0,0,0,0,0,0,1.018,1.018,1.015,1.013,1.013,1.011,1.007,1.007,1.004,1.001,1.001,1.001,0,0,0.992,0.989,0.989,0.984,0.98,0.98,0.975,0.972,0.972,0.968,0.964,0.964,0.963,0.962,0.962,0.96,0.96,0.959,0.959,0.959,0.959,0.96,0.959,0.959,0.959,0.959,0.958,0.958,0.957,0.956,0.954,0.954,0.952,0.95,0.95,0.948,0.946,0.946,0.943,0.941,0.941,0.939,0.937,0.937,0.935,0.934,0.934,0.933,0.932,0.932,0.932,0.932,0.932,0.933,0.933,0.934,0.935,0.935,0.935,0.935,0.935,0.936,0.937,0.937,0.937,0.938,0.938,0.938,0.939,0.939,0.939,0.94,0.94,0.94,0.94,0.94,0.94,0.94,0.94,0.94,0.939,0.938,0.938,0.937,0.935,0.935,0.935,0.933,0.931,0.931,0.929,0.929,0.929,0.927,0.924,0.924,0.924,0.922,0.922,0.92,0.919,0.919,0.918,0.915,0.915,0.915,0.915,0.914,0.914,0.914,0.914,0.915,0.915,0.915,0.918,0.918,0.92,0.924,0.928,0.928,0.932,0.936,0.941,0.941,0.944,0.947,0.947,0.949,0.951,0.951,0.951,0.952,0.953,0.953,0.953,0.953,0.952,0.951,0.951,0.95,0.948,0.948,0.946
0,0,0,0,0,0,0,0,0,0,0,0,0,0,0,0,0,0,0,0,0,0,0,0,0,0,0,0,0,0,0,0,0,0,0,0,0,0,0,0,0,0,0,0,0,0,0,0,0,0,0,0,0,0,0,0,0,0,0,0,0,0,0,0,0,0,0,0,0,0,0,0,0,0,0,0,0,0,0,0,0,0,0,0,0,0,0,0,0,0,0,0,0,0,0,0,0,0,0,0,0,3.642,3.604,3.604,3.566,3.529,3.505,3.505,3.47,3.447,3.447,3.447,3.447,3.447,3.435,3.435,3.435,3.435,3.447,3.458,3.47,3.47,3.493,3.517,3.517,3.542,3.566,3.566,3.591,3.604,3.629,3.629,3.642,3.642,3.642,3.655,3.655,3.655,3.642,3.629,3.629,3.616,3.604,3.604,3.579,3.566,3.566,3.529,3.529,3.529,3.517,3.517,3.517,3.517,3.517,3.505,3.505,3.505,3.517,3.517,3.505,3.482,3.482,3.482,0,0,0,0,0,0,0,0,0,0,0,0,0,0,0,0,0,0,0,0,0,0,0,0,0,0,0,0,0,0,0,0,0,0,0,0,0,0,0,0,0,0,0,0,0,0,0,0,0,0,0,0,0.888,0.888,0.889,0.889,0.889,0.892,0.897,0.897,0.899,0.903,0.903,0.907,0.912,0.915,0.915,0.922,0.929,0.937,0.937,0.941,0.945,0.948,0.948,0.95,0.951,0.951,0.953,0.954,0.954,0.954,0.956,0.957,0.957,0.957,0.959,0.959,0.96,0.962,0.963,0.963,0.964,0.965,0.965,0.965,0.966,0.966,0.966,0.966,0.966,0.965,0.964,0.964,0.964,0.963,0.963,0.963,0.963,0.963,0.963,0.963,0.964,0.966,0.966,0.968,0.969,0.969,0.972,0.974,0.974,0.974,0.974,0.976,0.976,0.978,0.981,0.981,0.984,0.986,0.987,0.987,0.989,0.992,0.992,0.995,0.997,0.998,0.998,0.998,0.999,0.998,0.998,0.999,0.999,0.999,1,1,1,1,1.001,1,1,1,0.999,0.999,0.999,0.995,0.994,0.994,0.977,0.965,0.965,0.952,0.952,0.888,0.888,0.888,0.942,0.942,0.947,0.947,0.947,0.948,0.97,0,0,0,0,0,0,0.838,0.837,0.837,0.837,0.839,0.84,0.843,0.843,0.849,0.855,0.855,0.878,0.878,0.88,0.883,0.883,0.884,0.888,0.888,0.888,0.886,0.886,0.885,0.884,0.884,0.882,0.879,0.879,0.877,0.875,0.875,0.874,0.873,0.873,0.873,0.873,0.873,0.873,0.874,0.875,0.876,0.876,0.876,0.877,0.877,0.878,0.878,0.878,0.879,0.879,0.879,0.879,0.88,0.88,0.88,0.88,0.88,0.88,0.88,0.88,0.88,0.88,0.88,0.881,0.881,0.881,0.881,0.881,0.881,0.882,0.882,0.882,0.882,0.882,0.882,0.881,0.881,0.881,0.88,0.88,0.88,0.879,0.879,0.879,0.877,0.876,0.876,0.875,0.874,0.874,0.873,0.873,0.873,0.873,0.872,0.872,0.872,0.872,0.873,0.874,0.874,0.875,0.875,0.875,0.876,0.876,0.876,0.876,0.876,0.876,0.875,0.872,0.872,0.869,0.865,0.865,0.86,0.86,0.855,0.849,0.849,0.844,0.84,0.84,0.838,0.836,0.836,0.836,0.834,0.834,0.834,0.834,0.834,0,0,0,0,0,0,0,0,0,0,0,0,0,1.357,1.357,1.357,1.366,1.375,1.386,1.386,1.39,1.394,1.392,1.39,1.388,1.388,1.388,1.384,1.384,1.384,1.38,1.38,1.379,1.379,1.379,1.375,1.371,1.371,1.369,1.368,1.364,1.364,1.36,1.357,1.357,1.353,1.35,1.35,1.346,1.346,1.348,1.346,1.346,0,0,0,0,0,0,0,0,0,0,0,0,0,0,0,1.018,1.018,1.015,1.013,1.013,1.011,1.007,1.007,1.004,1.001,1.001,1.001,0,0,0.992,0.989,0.989,0.984,0.98,0.98,0.975,0.972,0.972,0.969,0.965,0.965,0.963,0.962,0.962,0.961,0.96,0.959,0.959,0.959,0.959,0.96,0.959,0.959,0.959,0.959,0.958,0.958,0.957,0.956,0.955,0.955,0.953,0.951,0.951,0.948,0.947,0.947,0.943,0.941,0.941,0.939,0.937,0.937,0.935,0.934,0.934,0.933,0.932,0.932,0.932,0.932,0.932,0.934,0.934,0.934,0.935,0.935,0.936,0.937,0.937,0.938,0.94,0.941,0.941,0.941,0.942,0.942,0.943,0.943,0.943,0.943,0.943,0.943,0.943,0.941,0.941,0.941,0.941,0.941,0.94,0.939,0.939,0.937,0.936,0.935,0.935,0.934,0.933,0.933,0.931,0.929,0.929,0.929,0.926,0.926,0.925,0.924,0.924,0.922,0.921,0.921,0.92,0.918,0.918,0.917,0.917,0.916,0.916,0.916,0.917,0.918,0.918,0.919,0.922,0.922,0.924,0.929,0.932,0.932,0.935,0.94,0.943,0.943,0.947,0.949,0.949,0.949,0.952,0.953,0.953,0.954,0.955,0.955,0.955,0.955,0.955,0.954,0.954,0.953,0.95,0.948,0.948
