0.652,0.65,0.648,0.648,0.645,0.643,0.643,0.64,0.636,0.636,0.633,0.63,0.63,0.627,0.627,0.625,0.623,0.623,0.621,0.621,0.621,0.624,0.622,0.622,0.622,0.622,0.624,0.626,0.629,0.629,0.632,0.636,0.641,0.641,0.646,0.658,0.663,0.667,0.667,0.67,0.671,0.673,0.673,0.673,0.673,0.673,0.673,0.673,0.673,0.674,0.674,0.674,0.674,0.675,0.675,0.675,0.675,0.675,0.674,0.674,0.674,0.673,0.672,0.672,0.672,0.67,0.67,0.67,0.669,0.669,0.669,0.668,0.667,0.667,0.667,0.667,0.668,0.669,0.669,0.67,0.67,0.67,0.672,0.673,0.673,0.676,0.677,0.678,0.678,0.678,0.679,0.679,0.678,0.678,0.679,0.678,0.677,0.677,0.677,0.676,0.676,0.675,0.673,0.673,0.673,0,0,0,0,0,0,0,0,0,0,0,0.609,0.608,0.608,0.608,0.607,0.607,0.607,0.606,0.606,0.606,0.605,0.605,0.604,0.603,0.603,0.603,0.603,0.603,0.603,0.603,0.603,0.603,0.603,0.603,0.603,0.603,0.603,0.603,0.604,0.603,0.603,0.603,0.603,0.603,0.603,0.603,0.603,0.603,0.603,0.603,0.602,0.602,0.602,0.602,0.602,0.602,0.602,0.602,0.601,0.601,0.601,0.6,0.6,0.6,0.599,0.599,0.599,0.599,0.599,0.599,0.6,0.6,0,0.654,0.654,0.654,0.666,0.666,0.666,0.666,0.667,0.668,0.669,0.669,0.67,0.67,0.67,0.67,0.67,0.67,0.67,0.671,0.671,0.671,0.671,0.672,0.672,0.672,0.672,0.672,0.672,0.672,0.672,0.672,0.673,0.673,0.673,0.672,0.672,0.672,0.673,0.673,0.673,0.672,0.672,0.672,0.672,0.672,0.672,0.672,0.673,0.673,0.673,0.673,0.673,0.673,0.673,0.673,0.673,0.673,0.673,0.673,0.673,0.672,0.672,0.672,0.671,0.671,0.671,0.67,0.67,0.67,0.669,0.668,0.668,0.668,0.667,0.667,0.667,0.666,0.666,0.666,0.666,0.666,0.666,0.666,0.666,0.666,0.666,0.666,0.666,0.666,0.666,0,0,0,0,0,0.784,0.784,0.785,0.785,0.786,0.786,0.79,0.79,0.792,0.796,0.797,0.797,0.797,0.798,0.797,0.797,0.797,0.797,0.796,0.796,0.795,0.794,0.794,0.794,0.793,0.792,0.792,0.791,0.79,0.79,0.789,0.788,0.788,0.786,0.784,0.784,0.782,0.779,0.779,0.777,0.776,0.776,0.775,0.773,0.773,0.773,0.773,0.772,0.772,0.772,1.174,1.174,1.174,1.175,1.175,1.176,1.176,1.176,1.176,1.175,1.175,1.175,1.174,1.172,1.172,1.172,1.172,1.171,1.171,1.171,1.17,1.17,1.168,1.166,1.166,1.163,1.159,1.159,1.154,1.149,1.149,1.145,1.14,1.14,1.137,1.135,1.135,1.132,1.131,1.131,1.131,1.131,1.131,1.132,1.132,1.132,1.134,1.134,1.134,1.134,1.135,1.135,1.135,1.135,1.134,1.134,1.135,1.134,1.132,1.132,1.131,1.13,1.129,1.129,1.125,1.124,1.124,1.121,1.121,1.121,1.121,1.121,1.121,1.121,1.122,1.124,1.124,1.126,1.127,1.127,1.127,1.125,1.125,1.122,1.121,1.121,1.119,1.118,1.118,1.116,1.114,1.113,1.113,1.113,1.113,1.113,1.113,1.112,1.112,1.112,1.112,1.113,1.113,1.114,1.115,1.116,1.116,1.119,1.121,1.121,1.122,1.122,1.122,1.121,1.12,1.12,1.12,1.119,1.119,1.119,1.118,1.118,1.118,0,0,0,0,0,1.2,1.2,1.2,1.204,1.208,1.213,1.213,1.226,1.237,1.251,1.251,1.289,1.289,1.303,1.303,1.317,1.334,1.334,1.334,1.339,1.346,1.35,1.35,1.355,1.36,1.36,1.369,1.379,1.386,1.386,1.392,1.397,1.397,1.401,1.405,1.411,1.411,2.901,2.877,2.877,2.861,2.837,2.837,2.806,2.776,2.776,2.739,2.703,2.703,2.661,2.613,2.613,2.581,2.549,2.549,2.542,2.542,2.542,2.542,2.542,2.542,2.542,2.542,2.542,2.555,2.555,2.568,2.574,2.574,2.568,2.561,2.561,2.555,2.549,2.549,2.542,2.536,2.536,2.53,2.517,2.517,2.511,2.505,2.505,2.493,2.487,2.481,2.481,2.475,2.463,2.463,2.457,2.445,2.445,2.44,2.434,2.434,2.422,2.417,2.417,2.411,2.405,2.4,2.4,2.394,2.389,2.389,2.383,2.377,2.377,2.372,2.367,2.367,2.361,2.356,2.356,2.345,2.34,2.334,2.334,2.324,2.318,2.318,2.308,2.303,2.303,2.298,2.282,2.282,2.277,2.272,2.272,2.262,2.257,2.257,2.247,2.247,2.238,2.238,2.228,2.223,2.223,2.218,2.209,2.209,2.204,2.195,2.195,2.185,2.181,2.181,2.176,2.171,2.171,2.167,2.162,2.158,2.158,2.153,2.149,2.149,2.149,2.144,2.144,2.14,2.135,2.135,2.126,2.122,2.122,2.118,2.113,2.105,2.105,2.105,2.1,2.1,2.096,2.092,2.092,2.088,2.079,2.079,2.071,2.062,2.062,2.054,2.046,2.046,2.038,2.03,2.022,2.022,2.018,2.006,2.006,1.998,1.994,1.994,1.987,1.979,1.979,1.971,1.964,1.964,1.96,1.956,1.956,1.953
0.652,0.65,0.648,0.648,0.648,0.643,0.643,0.64,0.637,0.637,0.634,0.631,0.631,0.629,0.627,0.627,0.625,0.624,0.624,0.624,0.624,0.624,0.624,0.624,0.626,0.626,0.628,0.631,0.634,0.634,0.638,0.643,0.648,0.657,0.657,0.662,0.666,0.668,0.668,0.67,0.672,0.673,0.673,0.673,0.674,0.674,0.674,0.674,0.674,0.675,0.675,0.675,0.675,0.676,0.676,0.676,0.676,0.676,0.676,0.675,0.674,0.674,0.673,0.673,0.673,0.671,0.67,0.67,0.67,0.669,0.669,0.668,0.668,0.668,0.667,0.667,0.668,0.669,0.669,0.67,0.67,0.67,0.672,0.673,0.673,0.676,0.677,0.678,0.678,0.678,0.679,0.679,0.678,0.678,0.679,0.678,0.677,0.677,0.677,0.676,0.676,0.675,0.674,0.674,0.674,0,0,0,0,0,0,0,0,0,0,0,0,0.609,0.609,0.608,0.608,0.608,0.607,0.606,0.606,0.606,0.605,0.605,0.604,0.603,0.603,0.603,0.603,0.603,0.603,0.603,0.603,0.603,0.603,0.603,0.603,0.603,0.603,0.603,0.604,0.603,0.603,0.603,0.603,0.603,0.603,0.603,0.603,0.603,0.603,0.603,0.602,0.602,0.602,0.602,0.602,0.602,0.602,0.602,0.601,0.601,0.601,0.6,0.6,0.6,0.599,0.599,0.599,0.599,0.599,0.599,0,0,0,0.654,0.654,0.654,0.667,0.667,0.667,0.667,0.668,0.669,0.67,0.67,0.67,0.671,0.671,0.67,0.67,0.67,0.671,0.671,0.671,0.671,0.671,0.672,0.672,0.672,0.672,0.672,0.672,0.672,0.672,0.672,0.673,0.673,0.673,0.672,0.672,0.672,0.673,0.673,0.673,0.672,0.672,0.672,0.672,0.672,0.672,0.672,0.673,0.673,0.673,0.673,0.673,0.673,0.673,0.673,0.673,0.673,0.673,0.673,0.673,0.672,0.672,0.672,0.671,0.671,0.671,0.67,0.67,0.67,0.67,0.669,0.669,0.668,0.668,0.668,0.667,0.667,0.667,0.666,0.666,0.666,0.666,0.666,0.666,0.666,0.666,0.666,0.666,0.666,0.666,0,0,0,0,0,0.784,0.784,0.785,0.785,0.786,0.788,0.791,0.791,0.794,0.796,0.797,0.797,0.798,0.798,0.798,0.797,0.797,0.797,0.796,0.796,0.795,0.794,0.794,0.794,0.793,0.792,0.792,0.791,0.79,0.79,0.789,0.788,0.788,0.786,0.784,0.784,0.782,0.779,0.779,0.777,0.776,0.776,0.775,0.773,0.773,0.773,0.773,0.772,0.772,0.772,1.163,1.164,1.164,1.168,1.171,1.172,1.172,1.175,1.176,1.176,1.175,1.175,1.175,1.174,1.172,1.172,1.172,1.172,1.172,1.171,1.171,1.172,1.17,1.17,1.17,1.167,1.163,1.163,1.158,1.153,1.153,1.148,1.144,1.144,1.14,1.136,1.136,1.132,1.131,1.131,1.131,1.131,1.131,1.132,1.132,1.132,1.134,1.134,1.134,1.134,1.135,1.135,1.136,1.136,1.136,1.136,1.137,1.136,1.136,1.137,1.136,1.135,1.134,1.134,1.131,1.13,1.13,1.129,1.127,1.127,1.127,1.129,1.129,1.129,1.13,1.131,1.132,1.132,1.134,1.134,1.132,1.129,1.129,1.126,1.125,1.125,1.122,1.121,1.121,1.12,1.118,1.116,1.116,1.115,1.115,1.115,1.115,1.114,1.114,1.114,1.114,1.115,1.115,1.115,1.116,1.119,1.119,1.121,1.122,1.122,1.124,1.125,1.122,1.121,1.12,1.12,1.12,1.119,1.119,1.119,1.118,1.118,1.118,0,0,0,0,0,1.211,1.211,1.214,1.214,1.217,1.22,1.22,1.227,1.237,1.251,1.251,1.268,1.29,1.305,1.305,1.318,1.334,1.337,1.337,1.344,1.35,1.353,1.353,1.36,1.366,1.366,1.375,1.384,1.392,1.392,1.397,1.401,1.401,1.407,1.409,1.415,1.415,2.901,2.885,2.885,2.869,2.837,2.837,2.806,2.776,2.776,2.739,2.703,2.703,2.668,2.634,2.634,2.6,2.581,2.581,2.568,2.561,2.555,2.555,2.555,2.555,2.555,2.555,2.555,2.561,2.561,2.568,2.574,2.574,2.568,2.561,2.561,2.555,2.549,2.549,2.542,2.536,2.536,2.53,2.524,2.524,2.511,2.505,2.505,2.499,2.493,2.487,2.487,2.481,2.475,2.475,2.463,2.451,2.451,2.445,2.434,2.434,2.428,2.422,2.422,2.411,2.405,2.4,2.4,2.394,2.389,2.389,2.383,2.377,2.377,2.372,2.367,2.367,2.356,2.35,2.35,2.345,2.334,2.334,2.329,2.324,2.313,2.313,2.308,2.303,2.303,2.298,2.287,2.287,2.277,2.272,2.272,2.262,2.257,2.257,2.252,2.247,2.238,2.238,2.233,2.223,2.223,2.218,2.214,2.214,2.209,2.199,2.199,2.19,2.181,2.181,2.176,2.171,2.171,2.167,2.162,2.158,2.158,2.153,2.149,2.149,2.149,2.144,2.144,2.14,2.135,2.135,2.131,2.122,2.122,2.122,2.113,2.109,2.109,2.105,2.1,2.1,2.096,2.092,2.092,2.083,2.075,2.075,2.067,2.054,2.054,2.046,2.042,2.042,2.034,2.026,2.022,2.018,2.014,2.006,2.006,1.998,1.994,1.994,1.987,1.979,1.979,1.971,1.964,1.964,1.96,1.953,1.953,1.949
0.652,0.65,0.648,0.648,0.645,0.642,0.642,0.64,0.637,0.637,0.634,0.631,0.631,0.629,0.627,0.627,0.625,0.624,0.624,0.624,0.624,0.624,0.624,0.624,0.626,0.626,0.628,0.631,0.634,0.634,0.638,0.643,0.648,0.657,0.657,0.662,0.666,0.668,0.668,0.67,0.672,0.673,0.673,0.673,0.674,0.674,0.674,0.674,0.674,0.675,0.675,0.675,0.675,0.676,0.676,0.676,0.676,0.676,0.676,0.675,0.674,0.674,0.673,0.673,0.673,0.671,0.67,0.67,0.67,0.669,0.669,0.668,0.668,0.668,0.667,0.667,0.668,0.669,0.669,0.67,0.67,0.67,0.672,0.673,0.673,0.676,0.677,0.678,0.678,0.678,0.678,0.678,0.678,0.678,0.677,0.677,0.677,0.677,0.676,0.675,0.675,0.674,0.674,0.674,0.673,0.672,0.672,0.67,0.67,0,0,0,0,0,0,0,0,0.609,0.609,0.608,0.608,0.608,0.607,0.606,0.606,0.606,0.605,0.605,0.604,0.603,0.603,0.603,0.603,0.603,0.603,0.603,0.603,0.603,0.603,0.603,0.603,0.603,0.603,0.603,0.604,0.603,0.603,0.603,0.603,0.603,0.603,0.603,0.603,0.603,0.603,0.603,0.602,0.602,0.602,0.602,0.602,0.602,0.601,0.601,0.601,0.6,0.6,0.599,0.599,0.599,0.599,0.598,0.598,0.598,0.598,0.599,0,0,0,0.654,0.654,0.654,0.667,0.667,0.667,0.667,0.668,0.669,0.67,0.67,0.67,0.671,0.671,0.67,0.67,0.67,0.671,0.671,0.671,0.671,0.671,0.672,0.672,0.672,0.672,0.672,0.672,0.672,0.672,0.672,0.672,0.672,0.672,0.672,0.672,0.672,0.672,0.672,0.672,0.672,0.672,0.672,0.672,0.672,0.672,0.672,0.672,0.672,0.672,0.672,0.672,0.672,0.672,0.672,0.672,0.672,0.673,0.673,0.672,0.672,0.672,0.671,0.671,0.671,0.671,0.67,0.67,0.67,0.67,0.669,0.669,0.668,0.668,0.668,0.667,0.667,0.667,0.666,0.666,0.666,0.666,0.666,0.666,0.666,0.666,0.666,0.666,0.666,0.666,0.666,0.666,0,0,0,0.783,0.783,0.785,0.785,0.786,0.788,0.791,0.791,0.794,0.796,0.797,0.797,0.798,0.798,0.798,0.797,0.797,0.797,0.796,0.796,0.794,0.793,0.793,0.792,0.791,0.791,0.791,0.79,0.789,0.789,0.788,0.786,0.786,0.785,0.783,0.783,0.781,0.779,0.779,0.776,0.775,0.775,0.773,0.772,0.772,0.771,0.771,0.771,0.77,0.77,1.163,1.164,1.164,1.168,1.171,1.172,1.172,1.175,1.176,1.176,1.175,1.175,1.175,1.174,1.174,1.174,1.172,1.172,1.172,1.172,1.172,1.172,1.172,1.171,1.171,1.17,1.167,1.167,1.162,1.157,1.157,1.153,1.148,1.148,1.144,1.14,1.136,1.136,1.132,1.131,1.131,1.131,1.131,1.132,1.132,1.134,1.134,1.134,1.134,1.135,1.137,1.137,1.137,1.139,1.139,1.14,1.14,1.14,1.141,1.141,1.141,1.141,1.14,1.14,1.137,1.136,1.136,1.135,1.135,1.135,1.135,1.135,1.136,1.136,1.137,1.137,1.139,1.139,1.14,1.14,1.137,1.134,1.134,1.131,1.127,1.127,1.126,1.125,1.124,1.124,1.12,1.118,1.118,1.118,1.118,1.118,1.118,1.116,1.116,1.116,1.116,1.116,1.116,1.118,1.119,1.12,1.12,1.124,1.125,1.125,0,0,1.125,1.125,1.125,1.125,1.125,1.124,1.124,1.124,0,0,0,0,0,0,0,0,1.221,1.221,1.223,1.223,1.223,1.224,1.224,1.23,0,0,1.268,1.268,1.294,1.31,1.31,1.324,1.337,1.343,1.343,1.35,1.353,1.36,1.36,1.364,1.371,1.371,1.379,1.386,1.394,1.394,1.399,1.403,1.403,1.409,1.411,2.918,2.918,2.901,2.885,2.885,2.869,2.837,2.837,2.806,2.776,2.776,0,2.71,2.71,2.675,2.64,2.64,2.613,2.594,2.594,2.581,2.574,2.568,2.568,2.568,2.561,2.561,2.561,2.561,2.568,2.568,2.568,2.574,2.574,2.568,2.561,2.561,2.555,2.549,2.549,2.542,2.536,2.536,2.53,2.524,2.524,2.517,2.511,2.511,2.505,2.499,2.493,2.493,2.487,2.481,2.481,2.469,2.463,2.463,2.451,2.44,2.44,2.434,2.422,2.422,2.411,2.405,2.4,2.4,2.394,2.389,2.389,2.383,2.377,2.377,2.372,2.367,2.367,2.356,2.35,2.35,2.345,2.334,2.334,2.329,2.324,2.313,2.313,2.308,2.303,2.303,2.298,2.287,2.287,2.282,2.277,2.277,2.267,2.262,2.262,2.252,2.247,2.243,2.243,2.233,2.223,2.223,2.218,2.214,2.214,2.214,2.204,2.204,2.195,2.185,2.185,2.181,2.176,2.176,2.171,2.167,2.158,2.158,2.153,2.149,2.149,2.149,2.144,2.144,2.14,2.135,2.135,2.131,2.122,2.122,2.122,2.118,2.109,2.109,2.105,2.1,2.1,2.096,2.092,2.092,2.083,2.075,2.075,2.067,2.054,2.054,2.046,2.042,2.042,2.034,2.026,2.026,2.018,2.014,2.006,2.006,1.998,1.994,1.994,1.99,1.979,1.979,1.971,1.964,1.964,1.96,1.953,1.953,1.949
0.652,0.65,0.648,0.648,0.645,0.642,0.642,0.64,0.637,0.637,0.634,0.632,0.632,0.629,0.629,0.629,0.627,0.627,0.627,0.626,0.626,0.627,0.627,0.629,0.63,0.633,0.633,0.637,0.64,0.644,0.644,0.649,0.653,0.66,0.66,0.664,0.666,0.669,0.669,0.671,0.672,0.673,0.673,0.674,0.674,0.674,0.675,0.675,0.675,0.675,0.676,0.676,0.676,0.676,0.677,0.676,0.676,0.677,0.677,0.676,0.675,0.675,0.674,0.673,0.673,0.672,0.671,0.671,0.67,0.669,0.669,0.669,0.668,0.668,0.668,0.668,0.668,0.669,0.669,0.67,0.671,0.671,0.672,0.673,0.673,0.676,0.677,0.678,0.678,0.678,0.678,0.677,0.677,0.677,0.677,0.676,0.676,0.676,0.675,0.674,0.674,0.674,0.673,0.673,0.673,0.672,0.672,0.67,0.67,0.67,0.669,0.667,0.667,0.666,0.666,0.667,0,0.668,0.668,0.669,0.669,0.67,0.67,0.606,0.606,0.606,0.605,0.605,0.604,0.603,0.603,0.603,0.603,0.603,0.603,0.603,0.603,0.603,0.603,0.603,0.604,0.604,0.604,0.604,0.604,0.604,0.604,0.604,0.603,0.603,0.603,0.603,0.603,0.603,0.603,0.603,0.602,0.602,0.602,0.602,0.602,0.602,0.601,0.601,0.601,0.6,0.6,0.599,0.599,0.599,0.599,0.598,0.598,0.598,0.598,0.666,0.666,0.666,0.666,0.666,0.667,0.667,0.667,0.668,0.668,0.668,0.669,0.669,0.67,0.67,0.67,0.67,0.67,0.67,0.671,0.671,0.671,0.671,0.671,0.671,0.671,0.671,0.671,0.672,0.672,0.672,0.672,0.672,0.672,0.672,0.672,0.672,0.672,0.672,0.672,0.672,0.672,0.672,0.672,0.671,0.671,0.671,0.671,0.671,0.671,0.671,0.671,0.671,0.671,0.671,0.671,0.671,0.671,0.671,0.672,0.672,0.672,0.672,0.672,0.672,0.672,0.671,0.67,0.67,0.671,0.67,0.67,0.67,0.67,0.67,0.67,0.669,0.668,0.668,0.668,0.668,0.668,0.667,0.667,0.667,0.667,0.666,0.666,0.666,0.666,0.666,0.666,0.665,0.665,0.666,0.665,0.665,0,0,0.783,0.783,0.783,0.783,0.785,0.787,0.791,0.791,0.794,0.796,0.798,0.798,0.797,0.797,0.797,0.796,0.796,0.796,0.794,0.794,0.793,0.792,0.792,0.791,0.791,0.789,0.789,0.789,0.788,0.788,0.787,0.786,0.786,0.785,0.783,0.783,0.78,0.778,0.778,0.776,0.774,0.774,0.772,0.771,0.771,0.77,0.77,0.77,0.77,0.77,1.149,1.154,1.154,1.161,1.164,1.17,1.17,1.172,1.174,1.174,1.175,1.175,1.175,1.174,1.174,1.174,1.172,1.172,1.172,1.172,1.172,1.172,1.172,1.171,1.171,1.17,1.167,1.167,1.162,1.157,1.157,1.153,1.148,1.148,1.144,1.14,1.136,1.136,1.132,1.131,1.131,1.131,1.131,1.132,1.132,1.134,1.134,1.134,1.134,1.135,1.137,1.137,1.137,1.139,1.139,1.14,1.14,1.14,1.141,1.141,1.141,1.141,1.14,1.14,1.137,1.136,1.136,1.135,1.135,1.135,1.135,1.135,1.136,1.136,1.137,1.137,1.139,1.139,1.14,1.14,1.137,1.134,1.134,1.131,1.127,1.127,1.126,1.125,1.124,1.124,1.12,1.118,1.118,1.118,1.118,1.118,1.118,1.116,1.116,1.116,1.116,1.116,1.116,1.118,1.119,1.12,1.12,1.124,1.125,1.125,0,0,1.125,1.125,1.125,1.125,1.125,1.124,1.124,1.124,0,0,0,0,0,0,0,0,1.221,1.221,1.223,1.223,1.223,1.224,1.224,1.23,0,0,1.268,1.268,1.294,1.31,1.31,1.324,1.337,1.343,1.343,1.35,1.353,1.36,1.36,1.364,1.371,1.371,1.379,1.386,1.394,1.394,1.399,1.403,1.403,1.409,1.411,2.918,2.918,2.901,2.885,2.885,2.869,2.837,2.837,2.806,2.776,2.776,2.746,2.71,2.71,2.675,2.64,2.64,2.613,2.594,2.594,2.581,2.574,2.568,2.568,2.568,2.561,2.561,2.561,2.561,2.568,2.568,2.568,2.574,2.574,2.568,2.561,2.561,2.555,2.549,2.549,2.542,2.536,2.536,2.53,2.524,2.524,2.517,2.511,2.511,2.505,2.499,2.493,2.493,2.487,2.481,2.481,2.469,2.463,2.463,2.451,2.44,2.44,2.434,2.422,2.422,2.411,2.405,2.4,2.4,2.394,2.389,2.389,2.383,2.377,2.377,2.372,2.367,2.367,2.356,2.345,2.345,2.34,2.329,2.329,2.324,2.318,2.313,2.313,2.308,2.303,2.303,2.298,2.287,2.287,2.282,2.277,2.277,2.267,2.262,2.262,2.252,2.247,2.243,2.243,2.233,2.223,2.223,2.218,2.214,2.214,2.214,2.204,2.204,2.195,2.185,2.185,2.181,2.176,2.176,2.171,2.167,2.158,2.158,2.153,2.149,2.149,2.149,2.144,2.144,2.14,2.135,2.135,2.126,2.122,2.122,2.118,2.113,2.109,2.109,2.105,2.1,2.1,2.092,2.088,2.088,2.079,2.071,2.071,2.062,2.05,2.05,2.042,2.034,2.034,2.026,2.022,2.022,2.014,2.01,2.002,2.002,1.998,1.994,1.994,1.99,1.979,1.979,1.971,1.964,1.964,1.956,1.953,1.953,1.945
0.652,0.65,0.648,0.648,0.646,0.643,0.643,0.641,0.638,0.638,0.636,0.634,0.634,0.632,0.631,0.631,0.63,0.63,0.63,0.63,0.63,0.631,0.631,0.634,0.636,0.639,0.639,0.642,0.646,0.65,0.65,0.654,0.659,0.662,0.665,0.665,0.668,0.67,0.67,0.672,0.673,0.674,0.674,0.674,0.675,0.675,0.675,0.675,0.676,0.676,0.676,0.676,0.676,0.677,0.677,0.677,0.677,0.677,0.677,0.676,0.676,0.676,0.675,0.674,0.674,0.673,0.672,0.672,0.67,0.67,0.67,0.669,0.669,0.669,0.669,0.669,0.67,0.67,0.67,0.671,0.672,0.672,0.673,0.674,0.674,0.676,0.677,0.678,0.678,0.678,0.678,0.677,0.677,0.677,0.677,0.676,0.676,0.676,0.675,0.674,0.674,0.674,0.673,0.673,0.673,0.672,0.672,0.67,0.67,0.67,0.669,0.667,0.667,0.666,0.666,0.667,0,0.668,0.668,0.669,0.669,0.67,0.67,0.67,0,0,0,0,0,0,0,0,0,0,0,0,0,0,0,0,0,0,0,0,0,0,0,0,0,0,0,0,0,0,0,0.603,0.602,0.602,0.602,0.602,0.602,0.602,0.601,0.601,0.601,0.6,0.6,0.6,0,0,0.67,0.67,0.669,0.667,0.666,0.666,0.666,0.666,0.666,0.666,0.667,0.667,0.667,0.668,0.668,0.668,0.668,0.669,0.67,0.67,0.67,0.67,0.67,0.67,0.67,0.67,0.67,0.67,0.671,0.671,0.671,0.671,0.671,0.671,0.671,0.671,0.671,0.671,0.671,0.671,0.671,0.671,0.671,0.671,0.671,0.671,0.671,0.671,0.671,0.67,0.67,0.67,0.67,0.67,0.67,0.67,0.67,0.67,0.67,0.67,0.67,0.67,0.67,0.671,0.671,0.671,0.671,0.672,0.671,0.671,0.671,0.671,0.67,0.67,0.67,0.67,0.67,0.67,0.67,0.67,0.67,0.669,0.669,0.669,0.669,0.669,0.669,0.668,0.667,0.667,0.667,0.667,0.666,0.666,0.666,0.665,0.665,0.665,0.665,0.665,0.665,0.665,0,0,0,0.783,0.783,0.783,0.785,0.786,0.791,0.791,0.794,0.796,0.797,0.797,0.797,0.797,0.796,0.796,0.796,0.795,0.794,0.794,0.792,0.791,0.791,0.791,0.789,0.789,0.789,0.788,0.787,0.787,0.786,0.786,0.786,0.785,0.783,0.783,0.78,0.778,0.778,0.776,0.774,0.774,0.772,0.771,0.771,0.77,0.77,0.77,0.77,0.77,1.136,1.142,1.142,1.151,1.159,1.159,1.164,1.17,1.174,1.174,1.175,1.175,1.175,1.174,1.174,1.174,1.174,1.172,1.172,1.172,1.174,1.174,1.174,1.172,1.172,1.172,1.17,1.17,1.166,1.161,1.157,1.157,1.151,1.148,1.148,1.144,1.14,1.14,1.136,1.135,1.135,1.135,1.135,1.136,1.136,1.136,1.136,1.136,1.136,1.137,1.14,1.14,1.141,1.144,1.144,1.144,1.146,1.146,1.148,1.149,1.149,1.148,1.146,1.146,1.145,1.144,1.144,1.144,1.142,1.142,1.142,1.142,1.142,1.144,1.144,1.144,1.145,1.145,1.145,1.145,1.142,1.139,1.139,1.136,1.134,1.134,1.131,1.13,1.127,1.127,1.125,1.121,1.121,1.12,1.12,1.12,1.12,1.12,1.12,1.119,1.119,1.12,1.12,1.12,1.121,1.124,1.124,1.125,1.126,1.126,0,0,0,1.131,1.131,1.132,1.132,1.135,1.137,1.137,0,0,0,0,0,0,0,0,1.234,1.233,1.233,1.231,1.231,1.231,1.231,0,0,0,0,0,0,0,0,1.348,1.348,1.351,1.351,1.359,1.366,1.369,1.369,1.371,1.379,1.379,1.386,1.392,1.397,1.397,1.403,1.403,1.403,2.943,2.926,2.91,2.91,2.893,2.885,2.885,2.861,2.837,2.837,2.806,2.776,2.776,2.746,2.717,2.717,2.689,2.661,2.654,2.634,2.62,2.6,2.6,2.594,2.587,2.587,2.574,2.574,2.574,2.568,2.568,2.574,2.574,2.574,2.574,2.574,2.568,2.561,2.561,2.555,2.555,2.555,2.549,2.542,2.542,2.536,2.53,2.53,2.524,2.517,2.511,2.511,2.505,2.499,2.499,2.499,2.493,2.493,2.481,2.469,2.469,2.457,2.445,2.445,2.434,2.422,2.422,2.411,2.405,2.4,2.4,2.394,2.389,2.389,2.383,2.377,2.377,2.372,2.361,2.361,2.35,2.34,2.34,2.334,2.324,2.324,2.318,2.313,2.308,2.308,2.303,2.303,2.303,2.298,2.293,2.293,2.282,2.277,2.277,2.267,2.262,2.262,2.257,2.247,2.243,2.243,2.233,2.223,2.223,2.218,2.218,2.218,2.214,2.204,2.204,2.199,2.19,2.19,2.185,2.181,2.181,2.171,2.167,2.162,2.162,2.153,2.149,2.149,2.144,2.144,2.144,2.135,2.131,2.131,2.126,2.118,2.118,2.118,2.109,2.105,2.105,2.1,2.096,2.096,2.092,2.083,2.083,2.075,2.067,2.067,2.054,2.046,2.046,2.034,2.03,2.03,2.022,2.018,2.018,2.01,2.006,1.998,1.998,1.994,1.99,1.99,1.987,1.979,1.979,1.968,1.96,1.96,1.953,1.949,1.949,1.945
0.652,0.65,0.648,0.648,0.646,0.643,0.643,0.641,0.638,0.638,0.636,0.634,0.634,0.632,0.631,0.631,0.63,0.63,0.63,0.63,0.63,0.631,0.631,0.634,0.636,0.639,0.639,0.642,0.646,0.65,0.65,0.654,0.659,0.662,0.665,0.665,0.668,0.67,0.67,0.672,0.673,0.674,0.674,0.674,0.675,0.675,0.675,0.675,0.676,0.676,0.676,0.676,0.676,0.677,0.677,0.677,0.677,0.677,0.677,0.676,0.676,0.676,0.675,0.674,0.674,0.673,0.672,0.672,0.67,0.67,0.67,0.669,0.669,0.669,0.669,0.669,0.67,0.67,0.67,0.671,0.672,0.672,0.673,0.674,0.674,0.676,0.677,0.678,0.677,0.677,0.677,0.677,0.677,0.677,0.677,0.676,0.675,0.675,0.674,0.674,0.674,0.673,0.673,0.673,0.673,0.672,0.672,0.67,0.67,0.67,0.669,0.667,0.667,0.666,0.666,0.666,0.667,0.667,0.668,0.669,0.669,0.67,0.67,0.67,0.671,0,0,0,0.677,0.677,0.677,0.678,0,0,0,0,0,0,0,0,0,0,0,0,0,0,0,0,0,0,0,0,0,0,0,0.603,0.602,0.602,0.602,0.602,0.602,0.602,0.601,0.601,0.601,0.6,0.6,0.6,0.67,0.67,0.67,0.67,0.669,0.667,0.666,0.666,0.666,0.666,0.666,0.666,0.667,0.667,0.667,0.667,0.668,0.668,0.668,0.669,0.67,0.67,0.67,0.67,0.67,0.67,0.67,0.67,0.67,0.67,0.671,0.671,0.671,0.671,0.671,0.671,0.671,0.671,0.671,0.671,0.671,0.671,0.671,0.671,0.671,0.671,0.671,0.671,0.671,0.671,0.671,0.67,0.67,0.67,0.67,0.67,0.67,0.67,0.67,0.67,0.67,0.67,0.67,0.67,0.67,0.671,0.671,0.671,0.671,0.672,0.671,0.671,0.671,0.671,0.67,0.67,0.67,0.67,0.67,0.67,0.67,0.67,0.67,0.67,0.669,0.669,0.669,0.669,0.669,0.668,0.667,0.667,0.667,0.667,0.666,0.666,0.666,0.665,0.665,0.665,0.665,0.665,0.665,0.665,0,0,0,0,0,0.785,0.785,0.786,0,0.794,0.794,0.797,0.797,0.797,0.797,0.797,0.796,0.796,0.796,0.795,0.794,0.794,0.792,0.791,0.791,0.791,0.789,0.789,0.789,0.788,0.787,0.787,0.786,0.786,0.786,0.785,0.783,0.783,0.781,0.779,0.779,0.776,0.775,0.775,0.772,0.771,0.771,0.77,0.77,0.77,0.77,1.126,1.136,1.142,1.142,1.151,1.159,1.159,1.164,1.17,1.174,1.174,1.176,1.176,1.175,1.175,1.174,1.174,1.174,1.174,1.174,1.174,1.174,1.175,1.175,1.175,1.175,1.174,1.172,1.17,1.17,1.164,1.161,1.161,1.157,1.153,1.153,1.149,1.145,1.145,1.141,1.14,1.14,1.14,1.14,1.14,1.14,1.14,1.14,1.14,1.14,1.141,1.144,1.144,1.145,1.148,1.148,1.149,1.15,1.15,1.153,1.154,1.154,1.154,1.153,1.153,1.151,1.151,1.151,1.151,1.15,1.15,1.15,1.15,1.15,1.15,1.15,1.15,1.15,1.15,1.15,1.15,1.149,1.145,1.145,1.142,1.14,1.137,1.137,1.135,1.132,1.132,1.129,1.125,1.125,1.124,1.124,1.124,1.122,1.122,1.122,1.122,1.122,1.122,1.124,1.124,1.125,1.129,1.129,1.131,1.132,1.132,0,0,0,1.144,1.144,1.145,1.145,1.15,0,0,0,0,0,0,0,0,0,0,1.24,1.239,1.239,1.237,1.237,1.237,0,0,0,0,0,0,0,0,0,0,0,0,0,0,0,0,0,1.384,1.384,1.384,1.392,2.96,2.951,2.951,2.951,2.943,2.943,2.943,2.926,2.91,2.91,2.893,2.885,2.885,2.861,2.837,2.837,2.806,2.776,2.776,2.754,2.724,2.724,2.703,2.675,2.654,2.654,2.634,2.613,2.613,2.607,2.594,2.594,2.587,2.581,2.581,2.574,2.574,2.574,2.574,2.574,2.574,2.574,2.568,2.561,2.561,2.555,2.555,2.555,2.549,2.542,2.542,2.536,2.53,2.53,2.524,2.517,2.517,2.517,2.511,2.511,2.511,2.499,2.493,2.493,2.481,2.469,2.469,2.457,2.445,2.445,2.434,2.422,2.422,2.411,2.405,2.4,2.4,2.394,2.389,2.389,2.383,2.377,2.377,2.372,2.361,2.361,2.35,2.34,2.34,2.334,2.324,2.324,2.318,2.313,2.308,2.308,2.303,2.303,2.303,2.298,2.293,2.293,2.282,2.277,2.277,2.267,2.262,2.262,2.257,2.247,2.243,2.243,2.233,2.223,2.223,2.223,2.218,2.218,2.218,2.209,2.209,2.199,2.195,2.195,2.19,2.185,2.185,2.176,2.167,2.162,2.162,2.153,2.149,2.149,2.144,2.144,2.144,2.135,2.131,2.131,2.126,2.118,2.118,2.118,2.109,2.105,2.105,2.1,2.096,2.096,2.092,2.083,2.083,2.075,2.067,2.067,2.054,2.046,2.046,2.034,2.03,2.03,2.022,2.018,2.018,2.01,2.006,1.998,1.998,1.994,1.99,1.99,1.987,1.979,1.979,1.968,1.96,1.96,1.953,1.949,1.949,1.945
0.652,0.65,0.648,0.648,0.646,0.644,0.644,0.642,0.64,0.64,0.638,0.636,0.636,0.635,0.634,0.634,0.634,0.634,0.634,0.634,0.634,0.636,0.638,0.638,0.641,0.644,0.648,0.648,0.651,0.655,0.659,0.659,0.663,0.666,0.668,0.668,0.67,0.672,0.673,0.673,0.674,0.675,0.675,0.675,0.676,0.676,0.676,0.676,0.676,0.676,0.676,0.677,0.677,0.677,0.677,0.677,0.677,0.677,0.677,0.677,0.677,0.677,0.676,0.675,0.675,0.674,0.673,0.673,0.672,0.671,0.671,0.671,0.67,0.67,0.67,0.671,0.671,0.671,0.671,0.672,0.673,0.673,0.673,0.675,0.677,0.677,0.677,0.678,0.677,0.677,0.677,0.677,0.676,0.676,0.676,0.675,0.674,0.674,0.673,0.673,0.673,0.673,0.673,0.673,0.672,0.672,0.672,0.671,0.67,0.67,0.669,0.667,0.667,0.666,0.666,0.666,0.667,0.667,0.668,0.668,0.668,0.669,0.67,0.67,0.671,0.673,0.676,0.676,0.676,0.677,0.677,0.677,0.678,0.678,0.678,0.678,0.678,0.678,0.677,0.677,0.677,0.677,0.676,0.676,0.676,0,0,0,0,0,0,0,0,0,0,0.603,0.603,0.603,0.602,0.602,0.67,0.67,0.67,0.67,0.67,0.671,0.67,0.67,0.67,0.67,0.67,0.67,0.67,0.668,0.666,0.666,0.666,0.666,0.666,0.666,0.667,0.667,0.667,0.667,0.667,0.667,0.668,0.669,0.67,0.67,0.67,0.67,0.67,0.67,0.67,0.67,0.67,0.67,0.67,0.67,0.67,0.67,0.67,0.671,0.671,0.671,0.671,0.671,0.671,0.671,0.671,0.671,0.671,0.67,0.67,0.67,0.67,0.67,0.67,0.67,0.67,0.67,0.67,0.67,0.67,0.67,0.67,0.67,0.67,0.67,0.67,0.67,0.67,0.67,0.67,0.67,0.671,0.671,0.671,0.671,0.671,0.67,0.67,0.67,0.67,0.67,0.67,0.67,0.67,0.67,0.67,0.67,0.669,0.669,0.669,0.669,0.669,0.667,0.667,0.666,0.666,0.666,0.666,0.666,0.665,0.665,0.665,0.664,0.664,0.664,0.664,0.664,0,0,0,0,0,0.785,0.785,0.786,0,0.794,0.794,0.797,0.797,0.797,0.797,0.797,0.796,0.796,0.796,0.795,0.793,0.793,0.792,0.791,0.791,0.789,0.788,0.788,0.788,0.787,0.786,0.786,0.786,0.786,0.786,0.785,0.783,0.783,0.781,0.779,0.779,0.776,0.775,0.775,0.772,0.771,0.771,0.77,0.77,0.77,0.77,1.113,1.124,1.124,1.131,1.142,1.151,1.151,1.159,1.166,1.172,1.172,1.176,1.176,1.175,1.175,1.174,1.174,1.174,1.174,1.174,1.174,1.174,1.175,1.175,1.175,1.175,1.174,1.172,1.17,1.17,1.164,1.161,1.161,1.157,1.153,1.153,1.149,1.145,1.145,1.141,1.14,1.14,1.14,1.14,1.14,1.14,1.14,1.14,1.14,1.14,1.141,1.144,1.144,1.145,1.148,1.148,1.149,1.15,1.15,1.153,1.154,1.154,1.154,1.153,1.153,1.151,1.151,1.151,1.151,1.15,1.15,1.15,1.15,1.15,1.15,1.15,1.15,1.15,1.15,1.15,1.15,1.149,1.145,1.145,1.142,1.14,1.137,1.137,1.135,1.132,1.132,1.129,1.125,1.125,1.124,1.124,1.124,1.122,1.122,1.122,1.122,1.122,1.122,1.124,1.124,1.125,1.129,1.129,1.131,1.132,1.132,1.15,1.154,0,1.144,1.144,1.145,1.145,1.15,0,0,0,0,0,0,0,0,0,0,1.24,1.239,1.239,1.237,1.237,1.237,0,0,0,0,0,0,0,0,0,0,0,0,0,0,0,0,0,1.384,1.384,1.384,1.392,2.951,2.951,2.943,2.943,2.943,2.934,2.934,2.918,2.91,2.91,2.893,2.877,2.877,2.853,2.829,2.829,2.806,2.776,2.776,2.754,2.724,2.724,2.703,2.675,2.654,2.654,2.634,2.613,2.613,2.607,2.594,2.594,2.587,2.581,2.581,2.574,2.574,2.574,2.574,2.574,2.574,2.574,2.568,2.561,2.561,2.555,2.549,2.549,2.549,2.542,2.542,2.536,2.53,2.53,2.524,2.517,2.517,2.517,2.511,2.511,2.511,2.499,2.493,2.493,2.481,2.469,2.469,2.457,2.445,2.445,2.434,2.422,2.422,2.411,2.4,2.4,2.4,2.394,2.389,2.389,2.383,2.377,2.377,2.367,2.361,2.361,2.345,2.34,2.34,2.334,2.324,2.324,2.318,2.308,2.308,2.308,2.303,2.298,2.298,2.298,2.293,2.293,2.282,2.277,2.277,2.267,2.262,2.262,2.257,2.247,2.243,2.243,2.233,2.223,2.223,2.223,2.218,2.218,2.218,2.209,2.209,2.199,2.195,2.195,2.19,2.185,2.185,2.176,2.167,2.162,2.162,2.153,2.149,2.149,2.144,2.14,2.14,2.131,2.126,2.126,2.122,2.113,2.113,2.109,2.105,2.105,2.1,2.096,2.092,2.092,2.088,2.079,2.079,2.071,2.062,2.062,2.05,2.038,2.038,2.03,2.026,2.026,2.018,2.014,2.014,2.006,2.002,1.998,1.998,1.994,1.99,1.99,1.987,1.975,1.975,1.968,1.956,1.956,1.953,1.949,1.949,1.942
0.652,0.65,0.648,0.648,0.647,0.645,0.645,0.644,0.642,0.642,0.641,0.639,0.639,0.638,0.638,0.638,0.637,0.637,0.637,0.639,0.639,0.64,0.643,0.643,0.645,0.648,0.652,0.652,0.655,0.659,0.663,0.663,0.665,0.668,0.67,0.67,0.672,0.673,0.674,0.674,0.675,0.675,0.675,0.676,0.676,0.676,0.676,0.676,0.676,0.676,0.677,0.677,0.677,0.677,0.678,0.678,0.678,0.679,0.679,0.679,0.678,0.678,0.677,0.677,0.677,0.675,0.674,0.674,0.674,0.673,0.673,0.673,0.672,0.672,0.672,0.672,0.673,0.673,0.673,0.674,0.674,0.674,0.675,0.676,0.677,0.677,0.678,0.678,0.677,0.677,0.677,0.676,0.676,0.676,0.675,0.674,0.674,0.673,0.673,0.673,0.673,0.673,0.672,0.672,0.672,0.672,0.672,0.671,0.67,0.67,0.669,0.667,0.667,0.666,0.666,0.666,0.667,0.667,0.668,0.668,0.668,0.669,0.67,0.67,0.671,0.673,0.675,0.675,0.675,0.676,0.676,0.677,0.677,0.677,0.677,0.677,0.677,0.677,0.677,0.677,0.677,0.677,0.676,0.676,0.676,0,0,0,0,0,0,0,0,0,0,0,0,0.67,0.67,0.67,0.67,0.67,0.67,0.67,0.67,0.671,0.67,0.67,0.67,0.67,0.67,0.67,0.67,0.668,0.667,0.667,0.666,0.666,0.666,0.666,0.667,0.667,0.667,0.667,0.667,0.667,0.667,0.668,0.669,0.669,0.67,0.67,0.67,0.67,0.67,0.67,0.67,0.67,0.67,0.67,0.67,0.67,0.67,0.67,0.67,0.67,0.67,0.67,0.67,0.67,0.67,0.67,0.67,0.67,0.67,0.67,0.67,0.67,0.67,0.669,0.669,0.669,0.669,0.669,0.669,0.669,0.669,0.669,0.669,0.669,0.669,0.669,0.67,0.67,0.67,0.67,0.67,0.671,0.671,0.67,0.67,0.67,0.67,0.67,0.67,0.67,0.67,0.67,0.67,0.67,0.67,0.669,0.669,0.669,0.669,0.668,0.668,0.667,0.667,0.666,0.666,0.666,0.665,0.665,0.665,0.664,0.664,0.664,0.664,0.664,0.663,0.663,0.663,0.663,0,0,0,0,0,0,0,0.796,0.796,0.797,0.799,0.799,0.797,0.797,0.796,0.796,0.796,0.794,0.793,0.793,0.791,0.789,0.789,0.789,0.788,0.788,0.786,0.786,0.786,0.786,0.786,0.786,0.786,0.785,0.784,0.784,0.782,0.782,0,0,0,0,0,0,0,1.095,1.095,1.095,1.097,1.103,1.113,1.113,1.121,1.134,1.145,1.145,1.155,1.164,1.172,1.172,1.176,1.176,1.176,1.176,1.175,1.175,1.175,1.175,1.175,1.175,1.176,1.176,1.176,1.176,1.176,1.176,1.175,1.172,1.172,1.168,1.164,1.164,1.161,1.158,1.158,1.154,1.149,1.149,1.148,1.145,1.145,1.145,1.144,1.144,1.144,1.144,1.144,1.144,1.144,1.145,1.148,1.148,1.15,1.151,1.151,1.153,1.155,1.155,1.155,1.158,1.159,1.158,1.158,1.158,1.158,1.158,1.158,1.158,1.157,1.157,1.157,1.157,1.155,1.155,1.155,1.155,1.155,1.155,1.155,1.155,1.154,1.151,1.149,1.149,1.146,1.145,1.145,1.142,1.14,1.14,1.135,1.13,1.13,1.129,1.127,1.127,1.126,1.126,1.126,1.126,1.126,1.127,1.13,1.13,1.134,1.139,1.139,1.145,1.146,1.15,1.15,1.154,1.176,1.163,1.163,1.167,1.171,1.171,1.193,1.198,1.208,1.208,0,0,0,0,1.246,1.246,1.243,1.243,1.245,1.245,1.245,1.245,0,0,0,0,0,0,0,0,0,0,0,0,0,0,0,0,2.977,2.977,2.96,2.96,2.951,2.951,2.943,2.943,2.943,2.934,2.926,2.926,2.918,2.901,2.901,2.885,2.869,2.869,2.853,2.829,2.829,2.806,2.783,2.783,2.761,2.739,2.724,2.724,2.696,2.668,2.668,2.654,2.634,2.634,2.62,2.613,2.613,2.6,2.587,2.587,2.581,2.574,2.574,2.574,2.574,2.574,2.574,2.568,2.561,2.561,2.555,2.549,2.549,2.542,2.542,2.542,2.536,2.53,2.53,2.524,2.524,2.517,2.517,2.517,2.511,2.511,2.505,2.499,2.499,2.481,2.475,2.475,2.457,2.445,2.445,2.434,2.422,2.422,2.411,2.4,2.4,2.394,2.394,2.389,2.389,2.383,2.372,2.372,2.367,2.356,2.356,2.345,2.334,2.334,2.334,2.324,2.324,2.313,2.308,2.308,2.308,2.303,2.298,2.298,2.298,2.298,2.298,2.287,2.282,2.282,2.272,2.267,2.267,2.257,2.252,2.243,2.243,2.233,2.223,2.223,2.223,2.218,2.218,2.218,2.209,2.209,2.199,2.195,2.195,2.19,2.185,2.185,2.176,2.167,2.162,2.162,2.153,2.149,2.149,2.14,2.135,2.135,2.126,2.122,2.122,2.113,2.109,2.109,2.105,2.1,2.1,2.096,2.092,2.088,2.088,2.083,2.075,2.075,2.062,2.054,2.054,2.042,2.034,2.034,2.026,2.018,2.018,2.014,2.01,2.01,2.006,1.998,1.998,1.998,1.994,1.99,1.99,1.987,1.975,1.975,1.968,1.956,1.956,1.953,1.945,1.945,1.942
0.652,0.65,0.649,0.649,0.648,0.646,0.646,0.645,0.644,0.644,0.643,0.642,0.642,0.641,0.641,0.64,0.64,0.64,0.641,0.643,0.643,0.645,0.647,0.65,0.65,0.653,0.656,0.66,0.66,0.663,0.666,0.668,0.668,0.671,0.672,0.672,0.673,0.674,0.675,0.675,0.676,0.676,0.676,0.676,0.676,0.676,0.676,0.677,0.677,0.677,0.677,0.678,0.678,0.678,0.679,0.679,0.679,0.679,0.679,0.679,0.679,0.679,0.678,0.677,0.677,0.677,0.676,0.676,0.675,0.675,0.675,0.674,0.674,0.674,0.674,0.674,0.675,0.675,0.675,0.676,0.676,0.676,0.676,0.677,0.677,0.677,0.678,0.678,0.677,0.677,0.677,0.676,0.676,0.676,0.675,0.674,0.674,0.673,0.673,0.673,0,0.673,0.672,0.672,0.672,0.672,0.672,0.671,0.67,0.67,0.669,0.668,0.668,0.667,0.667,0.667,0.667,0.667,0.668,0.668,0.668,0.669,0.67,0.67,0.671,0.673,0.675,0.675,0.675,0.676,0.676,0.677,0.677,0.677,0.677,0.677,0.677,0.677,0.677,0.677,0.677,0.677,0.676,0.676,0.676,0,0,0,0,0,0,0,0,0,0,0,0,0.67,0.67,0.67,0.671,0.671,0.671,0.671,0.671,0.671,0.671,0.671,0.671,0.671,0.671,0.67,0.67,0.669,0.668,0.668,0.667,0.666,0.666,0.666,0.667,0.667,0.667,0.667,0.667,0.667,0.667,0.668,0.669,0.669,0.67,0.67,0.67,0.67,0.67,0.67,0.67,0.67,0.67,0.67,0.67,0.67,0.67,0.67,0.67,0.67,0.67,0.67,0.67,0.67,0.67,0.67,0.67,0.67,0.67,0.67,0.67,0.67,0.67,0.669,0.669,0.669,0.669,0.669,0.669,0.669,0.669,0.669,0.669,0.669,0.669,0.669,0.67,0.67,0.67,0.67,0.67,0.671,0.671,0.67,0.67,0.67,0.67,0.67,0.67,0.67,0.67,0.67,0.67,0.67,0.67,0.669,0.669,0.669,0.669,0.668,0.668,0.667,0.667,0.666,0.666,0.666,0.665,0.665,0.665,0.664,0.664,0.664,0.664,0.664,0.663,0.663,0.663,0.663,0,0,0,0,0,0,0,0.797,0.797,0.798,0.799,0.799,0.798,0.798,0.796,0.796,0.796,0.794,0.793,0.793,0.791,0.789,0.789,0.789,0.788,0.788,0.786,0.786,0.786,0.786,0.786,0.786,0.786,0.785,0.784,0.784,0.782,0.782,0,0,0,0,0,0,0,1.095,1.095,1.095,1.097,1.103,1.113,1.113,1.121,1.134,1.145,1.145,1.155,1.164,1.172,1.172,1.178,1.178,1.176,1.176,1.176,1.176,1.175,1.175,1.176,1.176,1.178,1.178,1.178,1.178,1.178,1.178,1.176,1.175,1.175,1.171,1.168,1.168,1.164,1.162,1.162,1.158,1.154,1.154,1.151,1.149,1.149,1.149,1.149,1.149,1.149,1.149,1.149,1.149,1.149,1.149,1.151,1.151,1.153,1.155,1.155,1.155,1.158,1.159,1.159,1.161,1.162,1.162,1.162,1.162,1.161,1.161,1.161,1.162,1.161,1.161,1.161,1.159,1.159,1.159,1.159,1.159,1.159,1.159,1.159,1.158,1.158,1.157,1.155,1.155,1.153,1.151,1.151,1.149,1.146,1.146,1.141,1.137,1.137,1.134,1.132,1.132,1.131,1.131,1.131,1.131,1.131,1.134,1.139,1.139,1.144,1.151,1.151,1.158,1.162,1.166,1.166,1.171,1.176,1.182,1.182,1.186,1.19,1.19,1.193,1.198,1.208,1.208,0,0,0,0,1.246,1.246,1.246,1.246,1.248,1.248,1.249,0,0,0,0,0,0,0,0,0,0,0,0,0,0,0,0,0,2.977,2.977,2.968,2.96,2.951,2.951,2.943,2.943,2.943,2.934,2.926,2.926,2.918,2.901,2.901,2.885,2.869,2.869,2.853,2.837,2.837,2.806,2.783,2.783,2.768,2.754,2.732,2.732,2.717,2.689,2.689,2.668,2.647,2.647,2.634,2.62,2.62,2.607,2.594,2.594,2.581,2.581,2.581,2.574,2.574,2.574,2.574,2.568,2.561,2.561,2.555,2.549,2.549,2.542,2.542,2.542,2.536,2.53,2.53,2.524,2.524,2.517,2.517,2.517,2.511,2.511,2.505,2.499,2.499,2.481,2.475,2.475,2.457,2.451,2.451,2.434,2.422,2.422,2.411,2.4,2.4,2.394,2.394,2.389,2.389,2.383,2.372,2.372,2.367,2.356,2.356,2.345,2.334,2.334,2.334,2.324,2.324,2.313,2.308,2.308,2.308,2.303,2.298,2.298,2.298,2.298,2.298,2.293,2.282,2.282,2.277,2.267,2.267,2.262,2.252,2.247,2.247,2.238,2.228,2.228,2.223,2.223,2.223,2.218,2.209,2.209,2.199,2.195,2.195,2.19,2.185,2.185,2.176,2.167,2.162,2.162,2.153,2.149,2.149,2.14,2.135,2.135,2.126,2.122,2.122,2.113,2.109,2.109,2.105,2.1,2.1,2.096,2.092,2.088,2.088,2.083,2.075,2.075,2.062,2.054,2.054,2.042,2.034,2.034,2.026,2.018,2.018,2.014,2.01,2.01,2.006,1.998,1.998,1.998,1.994,1.99,1.99,1.987,1.975,1.975,1.968,1.956,1.956,1.953,1.945,1.945,1.942
0.652,0.65,0.649,0.649,0.648,0.646,0.646,0.645,0.644,0.644,0.643,0.642,0.642,0.641,0.641,0.64,0.64,0.64,0.641,0.643,0.643,0.645,0.647,0.65,0.65,0.653,0.656,0.66,0.66,0.663,0.666,0.668,0.668,0.671,0.672,0.672,0.673,0.674,0.675,0.675,0.676,0.676,0.676,0.676,0.676,0.676,0.676,0.677,0.677,0.677,0.677,0.678,0.678,0.678,0.679,0.679,0.679,0.679,0.679,0.679,0.679,0.679,0.678,0.677,0.677,0.677,0.676,0.676,0.675,0.675,0.675,0.674,0.674,0.674,0.674,0.674,0.675,0.675,0.675,0.676,0.676,0.676,0.676,0.677,0.677,0.677,0.678,0.678,0.677,0.677,0.677,0.676,0.675,0.675,0.674,0.673,0.673,0.673,0.673,0.672,0.672,0.672,0.672,0.672,0.672,0.671,0.671,0.671,0.67,0.67,0.669,0.668,0.668,0.667,0.667,0.667,0.667,0.667,0.668,0.668,0.668,0.669,0.67,0.67,0.671,0.673,0.674,0.674,0.675,0.676,0.676,0.676,0.677,0.677,0.677,0.677,0.677,0.677,0.677,0.677,0.677,0.676,0.676,0.675,0.675,0,0,0,0,0,0,0,0,0,0,0,0,0.67,0.67,0.67,0.671,0.671,0.671,0.671,0.671,0.671,0.671,0.671,0.671,0.671,0.67,0.67,0.67,0.669,0.668,0.668,0.667,0.666,0.666,0.666,0.667,0.667,0.666,0.666,0.667,0.667,0.667,0.668,0.668,0.668,0.669,0.669,0.669,0.67,0.67,0.67,0.67,0.67,0.67,0.67,0.67,0.67,0.67,0.67,0.67,0.67,0.67,0.67,0.67,0.67,0.67,0.67,0.67,0.67,0.67,0.669,0.669,0.669,0.669,0.669,0.669,0.668,0.668,0.668,0.668,0.668,0.668,0.668,0.668,0.669,0.669,0.669,0.669,0.669,0.67,0.67,0.67,0.67,0.67,0.67,0.67,0.67,0.67,0.67,0.67,0.67,0.67,0.67,0.669,0.669,0.669,0.669,0.669,0.669,0.668,0.668,0.668,0.666,0.666,0.666,0.666,0.665,0.665,0.665,0.664,0.663,0.663,0.663,0.663,0.663,0.663,0.663,0.663,0.663,0.663,0.662,0.662,0.662,0,0,0,0.797,0.797,0.798,0.799,0.799,0.798,0.798,0.796,0.795,0.795,0.794,0.792,0.792,0.791,0.789,0.789,0.788,0.786,0.786,0.785,0.785,0.785,0.785,0.785,0.785,0.785,0.785,0.784,0.784,0.782,0.782,0,0,0,1.095,1.094,1.094,1.093,1.091,1.091,1.091,1.093,1.097,1.106,1.106,1.113,1.127,1.14,1.14,1.151,1.162,1.171,1.171,1.178,1.178,1.176,1.176,1.176,1.176,1.175,1.175,1.176,1.176,1.178,1.178,1.178,1.178,1.178,1.178,1.176,1.175,1.175,1.171,1.168,1.168,1.164,1.162,1.162,1.158,1.154,1.154,1.151,1.149,1.149,1.149,1.149,1.149,1.149,1.149,1.149,1.149,1.149,1.149,1.151,1.151,1.153,1.155,1.155,1.155,1.158,1.159,1.159,1.161,1.162,1.162,1.162,1.162,1.161,1.161,1.161,1.162,1.161,1.161,1.161,1.159,1.159,1.159,1.159,1.159,1.159,1.159,1.159,1.158,1.158,1.157,1.155,1.155,1.153,1.151,1.151,1.149,1.146,1.146,1.141,1.137,1.137,1.134,1.132,1.132,1.131,1.131,1.131,1.131,1.131,1.134,1.139,1.139,1.144,1.151,1.151,1.158,1.162,1.166,1.166,1.171,1.176,1.182,1.182,1.186,1.19,1.19,1.193,1.198,1.208,1.208,1.227,1.237,1.242,1.242,1.246,1.246,1.246,1.246,1.248,1.248,1.249,0,0,0,0,0,0,0,0,0,0,0,0,0,0,2.994,2.994,2.986,2.977,2.977,2.968,2.96,2.951,2.951,2.943,2.943,2.943,2.934,2.926,2.926,2.91,2.901,2.901,2.885,2.869,2.869,2.853,2.829,2.829,2.806,2.783,2.783,2.768,2.754,2.732,2.732,2.717,2.689,2.689,2.668,2.647,2.647,2.634,2.62,2.62,2.607,2.594,2.594,2.581,2.581,2.581,2.574,2.574,2.574,2.574,2.568,2.561,2.561,2.555,2.549,2.549,2.542,2.542,2.542,2.536,2.53,2.53,2.524,2.517,2.517,2.517,2.517,2.511,2.511,2.499,2.493,2.493,2.481,2.469,2.469,2.457,2.445,2.445,2.434,2.422,2.422,2.411,2.4,2.4,2.394,2.394,2.389,2.389,2.377,2.372,2.372,2.361,2.356,2.356,2.34,2.334,2.334,2.329,2.318,2.318,2.313,2.308,2.308,2.308,2.303,2.298,2.298,2.298,2.298,2.298,2.293,2.282,2.282,2.277,2.267,2.267,2.262,2.252,2.247,2.247,2.238,2.228,2.228,2.223,2.223,2.223,2.218,2.209,2.209,2.199,2.19,2.19,2.185,2.185,2.185,2.176,2.167,2.158,2.158,2.149,2.144,2.144,2.14,2.131,2.131,2.122,2.113,2.113,2.109,2.105,2.105,2.1,2.096,2.096,2.092,2.088,2.083,2.083,2.079,2.067,2.067,2.058,2.05,2.05,2.038,2.03,2.03,2.022,2.014,2.014,2.014,2.01,2.01,2.002,1.998,1.994,1.994,1.994,1.99,1.99,1.987,1.975,1.975,1.968,1.956,1.956,1.953,1.945,1.945,1.942
0.652,0.65,0.649,0.649,0.648,0.648,0.648,0.647,0.646,0.646,0.645,0.644,0.644,0.644,0.644,0.644,0.644,0.644,0.646,0.647,0.647,0.649,0.652,0.655,0.655,0.658,0.66,0.663,0.663,0.666,0.669,0.671,0.671,0.673,0.674,0.674,0.675,0.676,0.676,0.676,0.676,0.677,0.677,0.677,0.677,0.677,0.677,0.677,0.677,0.677,0.677,0.678,0.678,0.678,0.679,0.679,0.679,0.68,0.68,0.68,0.679,0.679,0.679,0.678,0.678,0.677,0.677,0.677,0.677,0.677,0.677,0.677,0.676,0.676,0.676,0.676,0.677,0.677,0.677,0.677,0.678,0.678,0.678,0.678,0.678,0.678,0.678,0.678,0.677,0.677,0.677,0.676,0.675,0.675,0.674,0.673,0.673,0.673,0.673,0.672,0.672,0.672,0.672,0.672,0.672,0.671,0.671,0.671,0.67,0.67,0.67,0.669,0.668,0.668,0.668,0.668,0.668,0.668,0.668,0.669,0.669,0.67,0.67,0.67,0.671,0.673,0.674,0.674,0.675,0.675,0.675,0.676,0.676,0.677,0.677,0.677,0.677,0.677,0.676,0.676,0.676,0.675,0.675,0.674,0.674,0,0,0,0,0,0.67,0.67,0,0,0,0,0.67,0.67,0.671,0.671,0.671,0.671,0.671,0.671,0.671,0.671,0.671,0.671,0.671,0.671,0.67,0.67,0.67,0.67,0.668,0.668,0.667,0.667,0.667,0.667,0.667,0.667,0.666,0.666,0.667,0.667,0.667,0.668,0.668,0.668,0.669,0.669,0.669,0.669,0.669,0.669,0.669,0.669,0.669,0.669,0.67,0.67,0.67,0.67,0.67,0.67,0.67,0.67,0.67,0.67,0.67,0.67,0.67,0.669,0.669,0.669,0.669,0.669,0.668,0.668,0.668,0.668,0.668,0.668,0.668,0.668,0.668,0.668,0.668,0.668,0.668,0.668,0.669,0.669,0.669,0.669,0.67,0.67,0.67,0.67,0.67,0.669,0.669,0.67,0.67,0.669,0.669,0.669,0.668,0.668,0.669,0.668,0.668,0.668,0.667,0.667,0.667,0.666,0.665,0.665,0.665,0.664,0.664,0.664,0.663,0.663,0.663,0.663,0.663,0.663,0.663,0.663,0.663,0.663,0.662,0.662,0.662,0.662,0.661,0.661,0.661,0,0,0.799,0.799,0.799,0.798,0.798,0.796,0.795,0.795,0.794,0.792,0.792,0.791,0.789,0.789,0.788,0.786,0.786,0.785,0.785,0.785,0.785,0.785,0.785,0.785,0.785,0.785,0.785,0.784,0.784,0,1.1,1.1,1.095,1.094,1.094,1.091,1.091,1.091,1.091,1.091,1.094,1.101,1.101,1.108,1.122,1.122,1.14,1.149,1.162,1.171,1.171,1.178,1.178,1.178,1.178,1.178,1.178,1.176,1.176,1.176,1.176,1.178,1.179,1.179,1.178,1.178,1.178,1.179,1.176,1.176,1.175,1.172,1.172,1.168,1.166,1.166,1.163,1.159,1.159,1.157,1.154,1.154,1.154,1.154,1.154,1.154,1.154,1.153,1.153,1.153,1.155,1.157,1.157,1.158,1.159,1.159,1.159,1.161,1.162,1.162,1.163,1.164,1.164,1.164,1.164,1.164,1.164,1.163,1.163,1.163,1.163,1.163,1.162,1.162,1.162,1.162,1.162,1.162,1.162,1.163,1.162,1.162,1.161,1.161,1.161,1.159,1.159,1.159,1.157,1.154,1.154,1.149,1.145,1.145,1.141,1.139,1.139,1.137,1.137,1.139,1.139,1.139,1.141,1.149,1.149,1.155,1.163,1.171,1.171,1.181,1.181,1.181,1.19,1.19,1.194,1.194,1.203,1.203,1.203,1.205,1.208,1.217,1.217,1.227,1.237,1.242,1.242,1.246,1.248,1.248,1.249,1.251,1.253,1.253,0,0,0,0,0,0,0,0,0,0,0,3.003,3.003,2.994,2.986,2.986,2.977,2.977,2.977,2.968,2.96,2.951,2.951,2.943,2.934,2.934,2.926,2.918,2.918,2.91,2.893,2.893,2.877,2.861,2.861,2.845,2.829,2.829,2.806,2.791,2.791,2.768,2.761,2.746,2.746,2.724,2.703,2.703,2.682,2.661,2.661,2.647,2.627,2.627,2.613,2.6,2.6,2.587,2.581,2.581,2.581,2.574,2.574,2.574,2.568,2.561,2.561,2.555,2.549,2.549,2.542,2.542,2.542,2.536,2.53,2.53,2.524,2.517,2.517,2.517,2.511,2.505,2.505,2.499,2.487,2.487,2.475,2.463,2.463,2.451,2.44,2.44,2.434,2.422,2.422,2.405,2.4,2.4,2.394,2.389,2.383,2.383,2.377,2.367,2.367,2.361,2.35,2.35,2.34,2.329,2.329,2.324,2.318,2.318,2.313,2.308,2.303,2.303,2.303,2.298,2.298,2.298,2.298,2.298,2.293,2.287,2.287,2.277,2.272,2.272,2.262,2.257,2.247,2.247,2.238,2.228,2.228,2.223,2.223,2.223,2.214,2.204,2.204,2.195,2.19,2.19,2.185,2.181,2.181,2.176,2.162,2.158,2.158,2.149,2.14,2.14,2.135,2.126,2.126,2.118,2.109,2.109,2.105,2.1,2.1,2.096,2.092,2.092,2.092,2.083,2.083,2.083,2.075,2.067,2.067,2.058,2.046,2.046,2.034,2.026,2.026,2.018,2.01,2.01,2.01,2.006,2.006,2.002,1.994,1.994,1.994,1.994,1.99,1.99,1.987,1.979,1.979,1.968,1.96,1.96,1.953,1.949,1.949,1.945
0.652,0.652,0.65,0.65,0.65,0.649,0.649,0.649,0.648,0.648,0.648,0.648,0.648,0.648,0.648,0.648,0.649,0.649,0.65,0.652,0.654,0.654,0.656,0.659,0.659,0.662,0.664,0.667,0.667,0.669,0.671,0.673,0.673,0.674,0.675,0.675,0.676,0.676,0.676,0.676,0.677,0.677,0.677,0.677,0.677,0.677,0.677,0.677,0.678,0.678,0.678,0.679,0.679,0.679,0.68,0.68,0.68,0.68,0.68,0.68,0.68,0.68,0.679,0.679,0.679,0.678,0.678,0.678,0.678,0.679,0.678,0.678,0.678,0.678,0.678,0.678,0.679,0.68,0.679,0.679,0.68,0.68,0.68,0.68,0.68,0.68,0.679,0.679,0.677,0.677,0.677,0.676,0.675,0.675,0.674,0.673,0.673,0.673,0.673,0.672,0.672,0.672,0.672,0.672,0.672,0.672,0.672,0.672,0.672,0.672,0.67,0.67,0.669,0.669,0.669,0.669,0.669,0.669,0.669,0.67,0.67,0.67,0.67,0.67,0.671,0.673,0.674,0.674,0.675,0.675,0.675,0.676,0.676,0.677,0.677,0.677,0.677,0.677,0.676,0.676,0.676,0.675,0.675,0.674,0.674,0,0,0,0,0,0.67,0.67,0,0,0,0,0.67,0.67,0.671,0.671,0.671,0.671,0.671,0.671,0.671,0.671,0.671,0.671,0.671,0.671,0.671,0.67,0.67,0.67,0.669,0.669,0.668,0.668,0.668,0.667,0.667,0.667,0.667,0.667,0.667,0.667,0.667,0.668,0.668,0.668,0.669,0.669,0.669,0.669,0.669,0.669,0.669,0.669,0.669,0.669,0.67,0.67,0.67,0.67,0.67,0.67,0.67,0.67,0.67,0.67,0.67,0.67,0.67,0.669,0.669,0.669,0.669,0.669,0.668,0.668,0.668,0.668,0.668,0.668,0.668,0.668,0.668,0.668,0.668,0.668,0.668,0.668,0.669,0.669,0.669,0.669,0.67,0.67,0.67,0.67,0.67,0.669,0.669,0.67,0.67,0.669,0.669,0.669,0.668,0.668,0.669,0.668,0.668,0.668,0.667,0.667,0.667,0.666,0.665,0.665,0.665,0.664,0.664,0.664,0.663,0.663,0.663,0.663,0.663,0.663,0.663,0.663,0.663,0.663,0.662,0.662,0.662,0.662,0.661,0.661,0.661,0,0,0.8,0.8,0.799,0.798,0.798,0.796,0.795,0.795,0.794,0.792,0.792,0.791,0.789,0.789,0.788,0.786,0.786,0.785,0.785,0.785,0.785,0.785,0.785,0.785,0.785,0.785,0.785,0.785,0.785,0,1.1,1.1,1.096,1.095,1.095,1.091,1.091,1.091,1.091,1.091,1.094,1.101,1.101,1.108,1.122,1.122,1.149,1.149,1.162,1.172,1.172,1.178,1.178,1.178,1.179,1.178,1.178,1.176,1.176,1.178,1.178,1.178,1.179,1.179,1.179,1.179,1.179,1.179,1.179,1.179,1.178,1.176,1.176,1.174,1.171,1.171,1.168,1.166,1.166,1.163,1.162,1.162,1.161,1.161,1.161,1.161,1.159,1.159,1.159,1.159,1.159,1.161,1.161,1.162,1.163,1.163,1.163,1.163,1.164,1.164,1.166,1.166,1.166,1.167,1.167,1.166,1.166,1.166,1.166,1.166,1.166,1.166,1.164,1.164,1.164,1.164,1.164,1.164,1.164,1.166,1.167,1.167,1.167,1.167,1.167,1.167,1.167,1.167,1.166,1.163,1.163,1.158,1.154,1.154,1.15,1.148,1.148,1.148,1.148,1.148,1.149,1.149,1.153,1.159,1.159,1.167,1.176,0,1.189,1.189,1.2,1.2,1.2,1.204,1.207,1.207,1.208,1.213,1.215,1.215,1.218,1.224,1.224,1.231,1.239,1.242,1.242,1.248,1.249,1.249,1.251,1.251,1.254,1.254,0,0,0,0,0,0,0,0,3.003,3.003,3.003,3.003,3.003,2.994,2.986,2.986,2.977,2.968,2.968,2.96,2.96,2.951,2.951,2.943,2.934,2.934,2.926,2.91,2.91,2.901,2.885,2.885,2.869,2.861,2.861,2.837,2.822,2.822,2.806,2.791,2.783,2.776,2.768,2.754,2.754,2.739,2.71,2.71,2.689,2.668,2.668,2.654,2.64,2.64,2.62,2.607,2.607,2.594,2.581,2.581,2.581,2.574,2.574,2.574,2.568,2.561,2.561,2.555,2.549,2.549,2.542,2.536,2.536,2.536,2.53,2.53,2.524,2.517,2.517,2.511,2.505,2.499,2.499,2.493,2.481,2.481,2.469,2.457,2.457,2.445,2.44,2.44,2.428,2.417,2.417,2.405,2.4,2.4,2.394,2.389,2.383,2.383,2.372,2.367,2.367,2.356,2.345,2.345,2.34,2.329,2.329,2.324,2.318,2.318,2.308,2.308,2.303,2.303,2.303,2.303,2.303,2.298,2.298,2.298,2.293,2.282,2.282,2.277,2.272,2.272,2.262,2.257,2.247,2.247,2.233,2.223,2.223,2.218,2.214,2.214,2.209,2.199,2.199,2.195,2.185,2.185,2.185,2.181,2.181,2.171,2.162,2.158,2.158,2.149,2.14,2.14,2.131,2.126,2.126,2.113,2.105,2.105,2.1,2.096,2.096,2.092,2.088,2.088,2.088,2.083,2.079,2.079,2.071,2.062,2.062,2.054,2.042,2.042,2.03,2.022,2.022,2.014,2.01,2.01,2.006,2.006,2.006,1.998,1.994,1.994,1.994,1.99,1.99,1.99,1.983,1.979,1.979,1.968,1.96,1.96,1.956,1.953,1.953,1.949
0.652,0.652,0.65,0.65,0.65,0.649,0.649,0.649,0.648,0.648,0.648,0.648,0.648,0.648,0.648,0.648,0.649,0.649,0.65,0.652,0.654,0.654,0.656,0.659,0.659,0.662,0.664,0.667,0.667,0.669,0.671,0.673,0.673,0.674,0.675,0.675,0.676,0.676,0.676,0.676,0.677,0.677,0.677,0.677,0.677,0.677,0.677,0.677,0.678,0.678,0.678,0.679,0.679,0.679,0.68,0.68,0.68,0.68,0.68,0.68,0.68,0.68,0.679,0.679,0.679,0.678,0.678,0.678,0.678,0.679,0.678,0.678,0.678,0.678,0.678,0.678,0.679,0.68,0.679,0.679,0.68,0.68,0.68,0.68,0.68,0.68,0.679,0.679,0.677,0.677,0.677,0.676,0.675,0.675,0.674,0.673,0.673,0.673,0.673,0.672,0.672,0.672,0.672,0.672,0.672,0.672,0.672,0.672,0.672,0.672,0.67,0.67,0.669,0.669,0.669,0.669,0.669,0.669,0.669,0.67,0.67,0.67,0.67,0.67,0.671,0.673,0.673,0.673,0.674,0.675,0.675,0.675,0.676,0.676,0.676,0.676,0.676,0.676,0.676,0.676,0.676,0.675,0.675,0.674,0.673,0.672,0.672,0.67,0.67,0.67,0.67,0.669,0.669,0.669,0.669,0.67,0.67,0.67,0.671,0.671,0.671,0.671,0.671,0.671,0.671,0.671,0.671,0.671,0.671,0.671,0.67,0.67,0.67,0.67,0.669,0.669,0.668,0.668,0.668,0.667,0.667,0.667,0.667,0.667,0.667,0.667,0.667,0.667,0.668,0.668,0.668,0.669,0.669,0.669,0.669,0.669,0.669,0.669,0.669,0.669,0.67,0.67,0.67,0.67,0.67,0.67,0.67,0.67,0.67,0.67,0.67,0.67,0.669,0.669,0.669,0.669,0.668,0.668,0.668,0.668,0.668,0.667,0.667,0.667,0.667,0.667,0.667,0.667,0.667,0.667,0.667,0.667,0.668,0.668,0.668,0.668,0.669,0.669,0.669,0.669,0.669,0.669,0.669,0.669,0.669,0.668,0.668,0.668,0.668,0.668,0.668,0.667,0.667,0.667,0.666,0.666,0.666,0.665,0.665,0.665,0.664,0.664,0.664,0.664,0.663,0.663,0.663,0.663,0.663,0.663,0.663,0.663,0.663,0.663,0.662,0.661,0.661,0.661,0.661,0.661,0.661,0,0,0.8,0.8,0.799,0.798,0.798,0.796,0.795,0.795,0.794,0.791,0.791,0.791,0.789,0.789,0.788,0.786,0.786,0.785,0.785,0.785,0.785,0.785,0.785,0.785,0.785,0.785,0.785,0.785,0.785,0,1.1,1.1,1.096,1.095,1.095,1.091,1.091,1.091,1.091,1.091,1.094,1.1,1.1,1.107,1.12,1.12,1.146,1.146,1.161,1.172,1.172,1.178,1.178,1.178,1.179,1.178,1.178,1.176,1.176,1.178,1.178,1.178,1.179,1.179,1.179,1.179,1.179,1.179,1.179,1.179,1.178,1.176,1.176,1.174,1.171,1.171,1.168,1.166,1.166,1.163,1.162,1.162,1.161,1.161,1.161,1.161,1.159,1.159,1.159,1.159,1.159,1.161,1.161,1.162,1.163,1.163,1.163,1.163,1.164,1.164,1.166,1.166,1.166,1.167,1.167,1.166,1.166,1.166,1.166,1.166,1.166,1.166,1.164,1.164,1.164,1.164,1.164,1.164,1.164,1.166,1.167,1.167,1.167,1.167,1.167,1.167,1.167,1.167,1.166,1.163,1.163,1.158,1.154,1.154,1.15,1.148,1.148,1.148,1.148,1.148,1.149,1.149,1.153,1.159,1.159,1.167,1.176,1.197,1.189,1.189,1.2,1.2,1.2,1.204,1.207,1.207,1.208,1.213,1.215,1.215,1.218,1.224,1.224,1.231,1.237,1.242,1.242,1.246,1.248,1.248,1.251,1.251,1.254,1.254,0,0,0,0,0,0,0,0,3.003,3.003,3.003,3.003,3.003,2.994,2.986,2.986,2.977,2.968,2.968,2.96,2.96,2.951,2.951,2.943,2.934,2.934,2.926,2.91,2.91,2.901,2.885,2.885,2.869,2.861,2.861,2.837,2.822,2.822,2.806,2.799,2.783,2.783,2.776,2.761,2.761,2.746,2.724,2.724,2.703,2.682,2.682,2.661,2.647,2.647,2.627,2.613,2.613,2.6,2.587,2.587,2.587,2.581,2.581,2.574,2.574,2.561,2.561,2.555,2.549,2.549,2.542,2.536,2.536,2.536,2.53,2.53,2.524,2.517,2.517,2.511,2.505,2.499,2.499,2.493,2.481,2.481,2.469,2.457,2.457,2.445,2.44,2.44,2.428,2.417,2.417,2.405,2.4,2.4,2.394,2.389,2.383,2.383,2.372,2.367,2.367,2.356,2.345,2.345,2.34,2.329,2.329,2.324,2.318,2.318,2.308,2.308,2.303,2.303,2.303,2.303,2.303,2.298,2.298,2.298,2.293,2.282,2.282,2.277,2.272,2.272,2.262,2.257,2.247,2.247,2.233,2.223,2.223,2.218,2.214,2.214,2.209,2.199,2.199,2.195,2.185,2.185,2.185,2.181,2.181,2.171,2.167,2.158,2.158,2.149,2.14,2.14,2.131,2.126,2.126,2.113,2.105,2.105,2.1,2.096,2.096,2.092,2.088,2.088,2.088,2.083,2.079,2.079,2.071,2.062,2.062,2.054,2.042,2.042,2.03,2.022,2.022,2.014,2.01,2.01,2.006,2.006,2.006,1.998,1.994,1.994,1.994,1.99,1.99,1.99,1.983,1.979,1.979,1.971,1.96,1.96,1.956,1.953,1.953,1.953
0.653,0.653,0.652,0.652,0.651,0.651,0.651,0.651,0.651,0.651,0.651,0.651,0.652,0.652,0.652,0.653,0.654,0.655,0.655,0.656,0.658,0.658,0.66,0.663,0.666,0.666,0.667,0.67,0.672,0.672,0.673,0.674,0.674,0.675,0.676,0.676,0.676,0.677,0.677,0.677,0.677,0.677,0.677,0.677,0.678,0.678,0.678,0.678,0.678,0.678,0.679,0.679,0.679,0.679,0.68,0.68,0.68,0.68,0.681,0.681,0.68,0.68,0.68,0.68,0.68,0.679,0.679,0.679,0.679,0.68,0.68,0.68,0.68,0.68,0.68,0.68,0.68,0.681,0.681,0.681,0.681,0.681,0.681,0.68,0.68,0.68,0.679,0.679,0.678,0.677,0.677,0.676,0.675,0.675,0.674,0.673,0.673,0.673,0.673,0.672,0.672,0.672,0.673,0.673,0.673,0.673,0.673,0.673,0.672,0.672,0.671,0.67,0.67,0.67,0.67,0.67,0.67,0.67,0.67,0.67,0.67,0.67,0.67,0.67,0.671,0.672,0.673,0.673,0.673,0.673,0.673,0.674,0.674,0.675,0.675,0.675,0.675,0.675,0.675,0.675,0.675,0.674,0.674,0.673,0.673,0.672,0.671,0.67,0.67,0.67,0.67,0.669,0.669,0.669,0.669,0.67,0.67,0.67,0.67,0.67,0.671,0.671,0.671,0.671,0.671,0.671,0.671,0.671,0.671,0.671,0.67,0.67,0.67,0.67,0.669,0.669,0.668,0.668,0.668,0.667,0.667,0.667,0.667,0.666,0.666,0.666,0.666,0.666,0.667,0.667,0.668,0.668,0.668,0.668,0.668,0.668,0.669,0.669,0.669,0.669,0.669,0.67,0.67,0.67,0.67,0.67,0.67,0.67,0.67,0.67,0.67,0.67,0.669,0.669,0.669,0.668,0.668,0.668,0.667,0.667,0.667,0.666,0.666,0.666,0.666,0.666,0.666,0.666,0.666,0.666,0.666,0.666,0.667,0.667,0.667,0.667,0.668,0.668,0.668,0.668,0.668,0.668,0.667,0.667,0.667,0.667,0.667,0.667,0.667,0.666,0.666,0.666,0.666,0.666,0.665,0.665,0.665,0.664,0.664,0.664,0.663,0.663,0.663,0.663,0.663,0.663,0.663,0.663,0.663,0.663,0.663,0.663,0.663,0.662,0.662,0.661,0.661,0.66,0.66,0.661,0.66,0.659,0.659,0.659,0,0.799,0.797,0.797,0.794,0.794,0.794,0.792,0.791,0.791,0.789,0.788,0.788,0.788,0.786,0.786,0.785,0.785,0.785,0.785,0.785,0.785,0.785,0.785,0.785,0.785,0.785,0.785,0.789,0.791,0.791,1.101,1.097,1.097,1.096,1.094,1.094,1.093,1.093,1.094,1.1,1.1,1.107,1.119,1.119,1.144,1.144,1.159,1.171,1.171,1.178,1.179,1.179,1.181,1.179,1.179,1.179,1.179,1.179,1.179,1.179,1.179,1.179,1.179,1.181,1.181,1.181,1.181,1.181,1.181,1.179,1.179,1.179,1.176,1.176,1.174,1.172,1.172,1.17,1.168,1.167,1.167,1.167,1.167,1.167,1.164,1.164,1.164,1.164,1.164,1.166,1.166,1.166,1.167,1.167,1.167,1.167,1.167,1.167,1.168,1.168,1.168,1.17,1.17,1.168,1.168,1.168,1.168,1.168,1.168,1.168,1.167,1.167,1.167,1.167,1.167,1.168,1.168,1.168,1.17,1.171,1.171,1.172,1.174,1.174,1.174,1.176,1.175,1.172,1.168,1.168,1.163,1.159,1.159,1.158,1.158,1.158,1.158,1.158,1.159,1.159,1.163,1.171,1.178,1.178,1.187,1.197,1.201,1.201,1.205,1.211,1.211,1.214,1.215,1.215,1.217,1.221,1.223,1.223,1.226,1.229,1.229,1.233,1.237,1.242,1.242,1.246,1.248,1.248,1.251,1.251,1.251,1.253,1.254,1.256,1.256,0,0,0,0,2.994,2.994,3.003,3.003,2.994,2.994,2.986,2.986,2.986,2.977,2.968,2.968,2.96,2.96,2.951,2.951,2.943,2.934,2.934,2.926,2.91,2.91,2.893,2.885,2.885,2.869,2.853,2.853,2.837,2.822,2.822,2.806,2.799,2.783,2.783,2.776,2.761,2.761,2.746,2.724,2.724,2.703,2.682,2.682,2.661,2.647,2.647,2.627,2.613,2.613,2.6,2.587,2.587,2.587,2.581,2.581,2.574,2.574,2.561,2.561,2.555,2.549,2.549,2.542,2.536,2.536,2.53,2.524,2.524,2.517,2.511,2.511,2.505,2.499,2.493,2.493,2.487,2.475,2.475,2.463,2.457,2.457,2.445,2.434,2.434,2.422,2.417,2.417,2.405,2.4,2.4,2.394,2.389,2.383,2.383,2.372,2.367,2.367,2.356,2.345,2.345,2.34,2.329,2.329,2.324,2.313,2.313,2.308,2.308,2.303,2.303,2.303,2.298,2.298,2.298,2.298,2.298,2.287,2.282,2.282,2.272,2.272,2.272,2.262,2.252,2.247,2.243,2.233,2.223,2.223,2.218,2.214,2.214,2.204,2.199,2.199,2.19,2.185,2.185,2.185,2.181,2.181,2.171,2.167,2.158,2.158,2.149,2.135,2.135,2.126,2.122,2.122,2.113,2.1,2.1,2.096,2.092,2.092,2.092,2.088,2.088,2.083,2.079,2.075,2.075,2.067,2.058,2.058,2.05,2.042,2.042,2.03,2.022,2.022,2.014,2.01,2.01,2.006,2.006,2.006,1.998,1.994,1.994,1.99,1.99,1.987,1.987,1.983,1.975,1.975,1.971,1.96,1.96,1.956,1.953,1.953,1.953
0.653,0.653,0.653,0.653,0.653,0.653,0.653,0.653,0.653,0.654,0.655,0.655,0.655,0.656,0.656,0.656,0.658,0.659,0.659,0.661,0.662,0.662,0.664,0.666,0.669,0.669,0.67,0.672,0.673,0.673,0.674,0.675,0.675,0.676,0.677,0.677,0.677,0.677,0.677,0.677,0.677,0.678,0.678,0.678,0.678,0.678,0.679,0.679,0.679,0.679,0.68,0.68,0.68,0.68,0.68,0.68,0.68,0.68,0.681,0.681,0.681,0.681,0.681,0.68,0.68,0.68,0.68,0.68,0.681,0.681,0.681,0.681,0.681,0.681,0.682,0.682,0.682,0.682,0.682,0.682,0.682,0.682,0.682,0.681,0.681,0.681,0.679,0.679,0.678,0.677,0.677,0.676,0.675,0.675,0.674,0.673,0.673,0.673,0.673,0.673,0.673,0.673,0.673,0.673,0.673,0.673,0.673,0.673,0.673,0.672,0.672,0.671,0.671,0.671,0.67,0.67,0.67,0.67,0.67,0.67,0.67,0.67,0.67,0.67,0.671,0.672,0.673,0.673,0.673,0.673,0.673,0.674,0.674,0.675,0.675,0.675,0.675,0.675,0.675,0.675,0.675,0.674,0.674,0.673,0.673,0.673,0.671,0.67,0.67,0.67,0.67,0.67,0.67,0.67,0.67,0.67,0.67,0.67,0.67,0.67,0.671,0.671,0.671,0.671,0.671,0.671,0.671,0.671,0.671,0.671,0.671,0.67,0.67,0.67,0.67,0.67,0.669,0.668,0.668,0.667,0.667,0.667,0.667,0.666,0.666,0.666,0.666,0.666,0.667,0.667,0.668,0.668,0.668,0.668,0.668,0.668,0.669,0.669,0.669,0.669,0.669,0.67,0.67,0.67,0.67,0.67,0.67,0.67,0.67,0.67,0.67,0.67,0.669,0.669,0.669,0.668,0.668,0.668,0.667,0.667,0.667,0.666,0.666,0.666,0.666,0.666,0.666,0.666,0.666,0.666,0.666,0.666,0.667,0.667,0.667,0.667,0.668,0.668,0.668,0.668,0.668,0.668,0.667,0.667,0.667,0.667,0.667,0.667,0.667,0.666,0.666,0.666,0.666,0.666,0.665,0.665,0.665,0.664,0.664,0.664,0.663,0.663,0.663,0.663,0.663,0.663,0.663,0.663,0.663,0.663,0.663,0.663,0.663,0.662,0.662,0.661,0.661,0.66,0.66,0.661,0.66,0.659,0.659,0.659,0,0,0.797,0.797,0.794,0.794,0.794,0.792,0.791,0.791,0.789,0.788,0.788,0.788,0.786,0.786,0.785,0.785,0.785,0.785,0.785,0.785,0.786,0.786,0.787,0.787,0.787,0.788,0.789,0.791,0.791,1.102,1.1,1.1,1.1,1.096,1.096,1.094,1.094,1.096,1.102,1.102,1.108,1.119,1.119,1.144,1.144,1.159,1.171,1.171,1.179,1.179,1.179,1.181,1.181,1.181,1.181,1.179,1.179,1.179,1.179,1.179,1.179,1.179,1.181,1.181,1.181,1.182,1.182,1.182,1.183,1.183,1.182,1.181,1.181,1.179,1.176,1.176,1.175,1.172,1.172,1.174,1.172,1.172,1.172,1.17,1.17,1.17,1.168,1.168,1.17,1.17,1.17,1.17,1.17,1.17,1.17,1.17,1.17,1.171,1.171,1.171,1.171,1.171,1.171,1.171,1.171,1.171,1.17,1.17,1.17,1.17,1.17,1.17,1.17,1.17,1.171,1.172,1.172,1.174,1.176,1.176,1.179,1.181,1.181,1.182,1.183,1.183,1.182,1.181,1.181,1.175,1.171,1.171,1.17,1.17,1.182,1.17,1.17,1.171,1.171,1.175,1.183,1.191,1.191,1.201,1.21,1.215,1.215,1.221,1.227,1.227,1.229,1.229,1.229,1.229,1.23,1.231,1.231,1.233,1.234,1.234,1.236,1.237,1.242,1.242,1.246,1.248,1.248,1.249,1.251,1.251,1.251,1.254,1.254,1.254,0,0,0,2.986,2.986,2.986,2.994,2.994,2.994,2.994,2.986,2.977,2.977,2.977,2.968,2.968,2.968,2.96,2.951,2.951,2.943,2.934,2.934,2.926,2.91,2.91,2.893,2.877,2.877,2.869,2.853,2.853,2.837,2.822,2.822,2.814,2.799,2.791,2.791,2.776,2.768,2.768,2.754,2.732,2.732,2.71,2.689,2.689,2.668,2.647,2.647,2.634,2.62,2.62,2.6,2.594,2.594,2.587,2.581,2.581,2.574,2.574,2.568,2.568,2.555,2.549,2.549,2.542,2.536,2.536,2.53,2.524,2.524,2.517,2.511,2.511,2.505,2.493,2.487,2.487,2.475,2.469,2.469,2.457,2.445,2.445,2.44,2.434,2.434,2.422,2.417,2.417,2.405,2.4,2.4,2.394,2.389,2.383,2.383,2.372,2.361,2.361,2.356,2.345,2.345,2.334,2.329,2.329,2.318,2.313,2.313,2.308,2.308,2.303,2.303,2.303,2.298,2.298,2.293,2.293,2.293,2.287,2.277,2.277,2.272,2.262,2.262,2.257,2.252,2.252,2.243,2.233,2.218,2.218,2.214,2.209,2.209,2.204,2.195,2.195,2.19,2.181,2.181,2.181,2.181,2.181,2.171,2.162,2.158,2.153,2.144,2.135,2.135,2.126,2.118,2.118,2.109,2.1,2.1,2.092,2.092,2.092,2.088,2.088,2.088,2.083,2.079,2.075,2.075,2.067,2.058,2.058,2.05,2.042,2.042,2.03,2.022,2.022,2.014,2.01,2.01,2.006,2.002,2.002,1.998,1.994,1.994,1.99,1.99,1.987,1.987,1.983,1.975,1.975,1.971,1.964,1.964,1.96,1.956,1.956,1.953
0.653,0.653,0.653,0.653,0.653,0.653,0.653,0.653,0.653,0.654,0.655,0.655,0.655,0.656,0.656,0.656,0.658,0.659,0.659,0.661,0.662,0.662,0.664,0.666,0.669,0.669,0.67,0.672,0.673,0.673,0.674,0.675,0.675,0.676,0.677,0.677,0.677,0.677,0.677,0.677,0.677,0.678,0.678,0.678,0.678,0.678,0.679,0.679,0.679,0.679,0.68,0.68,0.68,0.68,0.68,0.68,0.68,0.68,0.681,0.681,0.681,0.681,0.681,0.68,0.68,0.68,0.68,0.68,0.681,0.681,0.681,0.681,0.681,0.681,0.682,0.682,0.682,0.682,0.682,0.682,0.682,0.682,0.682,0.681,0.681,0.681,0.679,0.679,0.678,0.677,0.677,0.676,0.675,0.675,0.674,0.673,0.673,0.673,0.673,0.673,0.673,0.673,0.673,0.673,0.673,0.673,0.673,0.673,0.673,0.672,0.672,0.671,0.671,0.671,0.67,0.67,0.67,0.67,0.67,0.67,0.67,0.67,0.67,0.67,0.67,0.671,0.671,0.671,0.672,0.673,0.673,0.673,0.673,0.673,0.674,0.674,0.674,0.674,0.674,0.674,0.674,0.673,0.673,0.673,0.672,0.672,0.671,0.67,0.67,0.67,0.669,0.669,0.67,0.67,0.67,0.67,0.67,0.67,0.67,0.67,0.671,0.671,0.671,0.671,0.671,0.671,0.671,0.671,0.671,0.67,0.67,0.67,0.67,0.67,0.67,0.67,0.669,0.668,0.668,0.667,0.667,0.667,0.667,0.666,0.666,0.666,0.666,0.666,0.667,0.667,0.667,0.668,0.668,0.668,0.668,0.668,0.668,0.668,0.669,0.669,0.669,0.669,0.669,0.669,0.669,0.669,0.67,0.67,0.67,0.67,0.669,0.669,0.669,0.669,0.669,0.668,0.667,0.667,0.667,0.666,0.666,0.666,0.666,0.666,0.666,0.666,0.666,0.666,0.666,0.666,0.666,0.666,0.666,0.666,0.666,0.666,0.667,0.667,0.667,0.666,0.666,0.666,0.666,0.666,0.666,0.666,0.666,0.666,0.666,0.665,0.665,0.665,0.664,0.664,0.664,0.664,0.664,0.663,0.663,0.663,0.663,0.663,0.663,0.663,0.663,0.663,0.663,0.663,0.663,0.663,0.663,0.663,0.663,0.662,0.662,0.661,0.661,0.66,0.66,0.66,0.66,0.659,0.659,0.659,0,0,0.797,0.797,0.794,0.792,0.792,0.791,0.789,0.789,0.789,0.788,0.788,0.787,0.786,0.786,0.785,0.785,0.785,0.785,0.785,0.785,0.786,0.786,0.787,0.787,0.787,0.788,0.789,0.791,0.791,1.107,1.107,1.107,1.106,1.103,1.103,1.101,1.101,1.103,1.107,1.107,1.114,0,0,0,1.159,1.159,1.171,1.171,1.179,1.181,1.181,1.181,1.182,1.182,1.181,1.181,1.181,1.181,1.181,1.181,1.181,1.181,1.181,1.181,1.182,1.182,1.183,1.183,1.185,1.185,1.185,1.185,1.185,1.183,1.181,1.179,1.179,1.178,1.178,1.178,1.178,1.176,1.176,1.175,1.172,1.172,1.172,1.172,1.174,1.172,1.172,1.172,1.172,1.172,1.172,1.172,1.172,1.172,1.172,1.172,1.172,1.172,1.172,1.172,1.172,1.172,1.172,1.171,1.171,1.171,1.171,1.172,1.172,1.172,1.174,1.175,1.175,1.178,1.179,1.179,1.183,1.186,1.186,1.189,1.191,1.191,1.19,1.189,1.189,1.186,1.182,1.182,1.182,1.182,1.182,1.182,1.182,1.183,1.187,1.187,1.196,1.203,1.203,1.211,1.221,1.226,1.226,1.233,1.237,1.24,1.24,1.239,1.239,1.239,1.239,1.24,1.239,1.239,1.239,1.239,1.239,1.24,1.243,1.243,1.248,1.248,1.248,1.249,1.251,1.251,1.251,1.254,1.254,1.254,0,0,0,2.986,2.986,2.986,2.994,2.994,2.994,2.994,2.986,2.977,2.977,2.977,2.968,2.968,2.968,2.96,2.951,2.951,2.943,2.934,2.934,2.926,2.91,2.91,2.893,2.877,2.877,2.869,2.853,2.853,2.837,2.829,2.829,2.814,2.806,2.799,2.799,2.791,2.783,2.783,2.761,2.739,2.739,2.717,2.696,2.696,2.675,2.661,2.661,2.64,2.627,2.627,2.613,2.6,2.6,2.594,2.587,2.587,2.581,2.574,2.568,2.568,2.555,2.549,2.549,2.542,2.536,2.536,2.53,2.524,2.524,2.517,2.511,2.511,2.505,2.493,2.487,2.487,2.475,2.469,2.469,2.457,2.445,2.445,2.44,2.434,2.434,2.422,2.417,2.417,2.411,2.4,2.4,2.394,2.389,2.383,2.383,2.372,2.361,2.361,2.356,2.345,2.345,2.334,2.329,2.329,2.318,2.313,2.313,2.313,2.308,2.303,2.303,2.303,2.298,2.298,2.293,2.293,2.293,2.287,2.277,2.277,2.272,2.262,2.262,2.257,2.252,2.252,2.243,2.233,2.218,2.218,2.214,2.209,2.209,2.204,2.195,2.195,2.19,2.181,2.181,2.181,2.181,2.181,2.171,2.162,2.162,2.153,2.144,2.135,2.135,2.126,2.118,2.118,2.109,2.1,2.1,2.092,2.092,2.092,2.088,2.088,2.088,2.083,2.079,2.075,2.075,2.071,2.062,2.062,2.05,2.042,2.042,2.03,2.022,2.022,2.014,2.01,2.01,2.006,2.002,2.002,1.998,1.994,1.994,1.99,1.99,1.987,1.987,1.983,1.975,1.975,1.971,1.964,1.964,1.96,1.956,1.956,1.956
0.654,0.654,0.654,0.654,0.654,0.655,0.655,0.656,0.656,0.657,0.657,0.657,0.658,0.659,0.66,0.66,0.661,0.663,0.663,0.664,0.666,0.667,0.667,0.67,0.671,0.671,0.673,0.674,0.675,0.675,0.676,0.676,0.676,0.677,0.677,0.677,0.677,0.677,0.678,0.678,0.678,0.679,0.679,0.679,0.68,0.68,0.68,0.68,0.68,0.68,0.681,0.681,0.681,0.681,0.681,0.681,0.681,0.681,0.682,0.682,0.681,0.681,0.681,0.681,0.681,0.681,0.681,0.681,0.682,0.682,0.682,0.682,0.682,0.682,0.682,0.682,0.682,0.683,0.683,0.683,0.683,0.683,0.682,0.682,0.682,0.681,0.68,0.68,0.679,0.677,0.677,0.677,0.675,0.675,0.674,0.674,0.674,0.673,0.673,0.673,0.673,0.673,0.673,0.673,0.673,0.673,0.674,0.674,0.673,0.673,0.673,0.672,0.671,0.671,0.671,0.671,0.671,0.67,0.67,0.67,0.67,0.67,0.67,0.67,0.67,0.67,0.671,0.671,0.671,0.672,0.672,0.672,0.673,0.673,0.673,0.673,0.673,0.673,0.673,0.673,0.673,0.673,0.673,0.673,0.671,0.671,0.671,0.67,0.67,0.67,0.669,0.669,0.669,0.669,0.669,0.669,0.669,0.67,0.67,0.67,0.67,0.67,0.67,0.67,0.67,0.67,0.67,0.67,0.67,0.67,0.67,0.67,0.67,0.67,0.67,0.67,0.67,0.669,0.669,0.668,0.667,0.667,0.667,0.666,0.666,0.666,0.666,0.666,0.666,0.666,0.666,0.667,0.667,0.667,0.667,0.667,0.667,0.668,0.668,0.668,0.668,0.669,0.669,0.669,0.669,0.669,0.669,0.669,0.669,0.669,0.669,0.669,0.669,0.668,0.668,0.667,0.667,0.667,0.667,0.666,0.666,0.666,0.666,0.666,0.666,0.666,0.666,0.666,0.666,0.666,0.666,0.666,0.666,0.666,0.666,0.666,0.666,0.666,0.666,0.665,0.665,0.665,0.665,0.665,0.665,0.664,0.664,0.664,0.664,0.663,0.663,0.663,0.663,0.663,0.663,0.662,0.662,0.662,0.662,0.662,0.662,0.663,0.663,0.663,0.662,0.662,0.662,0.662,0.662,0.663,0.663,0.662,0.662,0.662,0.661,0.661,0.661,0.66,0.66,0.66,0.659,0.659,0.659,0.659,0,0,0,0,0.794,0.791,0.791,0.79,0.789,0.789,0.788,0.788,0.788,0.787,0.787,0.787,0.786,0.786,0.786,0.787,0.787,0.788,0.789,0.789,0.79,0.791,0.791,0.792,0.794,0.796,0.796,1.107,1.107,1.107,1.106,1.103,1.103,1.101,1.101,1.103,1.107,1.107,1.114,0,0,1.141,1.141,1.154,1.163,1.163,1.171,1.174,1.174,1.175,1.176,1.178,1.178,1.178,1.179,1.179,1.181,1.181,1.181,1.181,1.181,1.181,1.182,1.182,1.182,1.182,1.185,1.185,1.185,1.185,1.185,1.183,1.181,1.179,1.179,1.178,1.178,1.178,1.178,1.176,1.176,1.175,1.172,1.172,1.172,1.172,1.174,1.172,1.172,1.172,1.172,1.172,1.172,1.172,1.172,1.172,1.172,1.172,1.172,1.172,1.172,1.172,1.172,1.172,1.172,1.171,1.171,1.171,1.171,1.172,1.172,1.172,1.174,1.175,1.175,1.178,1.179,1.179,1.183,1.186,1.186,1.189,1.191,1.191,1.19,1.189,1.189,1.186,1.182,1.182,1.182,1.182,1.182,1.182,1.182,1.183,1.187,1.187,1.196,1.203,1.203,1.211,1.221,1.226,1.226,1.233,1.237,1.24,1.24,1.239,1.239,1.239,1.239,1.24,1.239,1.239,1.239,1.239,1.239,1.24,1.243,1.243,1.248,1.248,1.248,1.249,1.249,1.249,1.251,1.253,1.254,1.254,0,2.986,2.986,2.986,2.986,2.986,2.994,2.986,2.986,2.986,2.977,2.977,2.977,2.968,2.968,2.968,2.96,2.951,2.951,2.951,2.943,2.934,2.934,2.926,2.91,2.91,2.893,2.877,2.877,2.869,2.853,2.853,2.837,2.829,2.829,2.814,2.806,2.799,2.799,2.791,2.783,2.783,2.761,2.739,2.739,2.717,2.696,2.696,2.675,2.661,2.661,2.64,2.627,2.627,2.613,2.6,2.6,2.594,2.587,2.587,2.581,2.574,2.561,2.561,2.555,2.549,2.549,2.536,2.536,2.536,2.53,2.517,2.517,2.511,2.505,2.505,2.493,2.487,2.481,2.481,2.469,2.457,2.457,2.451,2.44,2.44,2.434,2.428,2.428,2.422,2.417,2.417,2.411,2.4,2.4,2.394,2.389,2.383,2.383,2.372,2.361,2.361,2.35,2.345,2.345,2.334,2.329,2.329,2.318,2.313,2.313,2.313,2.308,2.303,2.303,2.303,2.298,2.298,2.293,2.287,2.287,2.282,2.272,2.272,2.267,2.262,2.262,2.257,2.247,2.247,2.238,2.233,2.218,2.218,2.214,2.209,2.209,2.199,2.195,2.195,2.185,2.181,2.181,2.176,2.176,2.176,2.171,2.162,2.162,2.153,2.144,2.135,2.135,2.126,2.118,2.118,2.109,2.1,2.1,2.092,2.092,2.092,2.088,2.088,2.088,2.083,2.079,2.075,2.075,2.067,2.062,2.062,2.05,2.042,2.042,2.03,2.022,2.022,2.014,2.01,2.01,2.006,2.002,2.002,1.998,1.994,1.994,1.99,1.99,1.987,1.987,1.983,1.975,1.975,1.971,1.964,1.964,1.96,1.956,1.956,1.956
0.656,0.656,0.656,0.656,0.657,0.657,0.658,0.658,0.658,0.66,0.66,0.66,0.66,0.661,0.662,0.662,0.663,0.665,0.665,0.666,0.668,0.669,0.669,0.671,0.672,0.672,0.673,0.674,0.675,0.675,0.676,0.677,0.677,0.677,0.677,0.678,0.678,0.678,0.679,0.679,0.679,0.68,0.68,0.68,0.681,0.681,0.681,0.682,0.682,0.682,0.682,0.682,0.682,0.682,0.682,0.682,0.682,0.682,0.682,0.682,0.682,0.682,0.681,0.681,0.681,0.681,0.681,0.682,0.682,0.682,0.682,0.682,0.682,0.682,0.683,0.683,0.683,0.683,0.684,0.684,0.684,0.684,0.683,0.682,0.682,0.682,0.681,0.681,0.68,0.678,0.678,0.677,0.677,0.677,0.675,0.674,0.674,0.674,0.674,0.674,0.674,0.674,0.674,0.674,0.674,0.674,0.674,0.674,0.675,0.674,0.674,0.673,0.673,0.673,0.672,0.672,0.672,0.671,0.671,0.671,0.67,0.67,0.67,0.67,0.67,0.67,0.67,0.67,0.671,0.671,0.671,0.672,0.672,0.672,0.672,0.672,0.673,0.673,0.673,0.673,0.673,0.672,0.672,0.672,0.671,0.671,0.67,0.67,0.669,0.669,0.669,0.669,0.669,0.669,0.669,0.669,0.669,0.67,0.67,0.67,0.67,0.67,0.67,0.67,0.67,0.67,0.669,0.669,0.67,0.67,0.67,0.67,0.67,0.67,0.67,0.67,0.669,0.669,0.669,0.668,0.668,0.668,0.667,0.666,0.666,0.666,0.666,0.666,0.666,0.666,0.666,0.666,0.666,0.666,0.666,0.666,0.666,0.667,0.667,0.668,0.668,0.668,0.668,0.668,0.668,0.668,0.669,0.669,0.669,0.669,0.669,0.669,0.668,0.668,0.668,0.667,0.667,0.667,0.666,0.666,0.666,0.666,0.665,0.665,0.665,0.665,0.665,0.665,0.665,0.665,0.665,0.664,0.664,0.664,0.664,0.664,0.664,0.664,0.664,0.664,0.664,0.663,0.663,0.663,0.663,0.663,0.663,0.663,0.662,0.662,0.662,0.662,0.661,0.661,0.661,0.661,0.661,0.661,0.661,0.661,0.661,0.662,0.662,0.662,0.662,0.662,0.662,0.662,0.662,0.662,0.662,0.662,0.662,0.661,0.66,0.66,0.66,0.66,0.66,0.66,0.659,0.659,0.659,0.658,0.658,0,0,0,0,0.791,0.791,0.789,0.788,0.788,0.788,0.788,0.788,0.788,0.787,0.787,0.787,0.787,0.788,0.789,0.789,0.789,0.791,0.791,0.793,0.794,0.796,0.796,0.797,0.802,0.802,1.116,1.114,1.114,1.114,1.112,1.109,1.109,1.109,1.112,1.115,1.115,1.122,1.129,1.129,1.129,1.135,1.142,1.142,1.149,1.154,1.155,1.155,1.158,1.161,1.161,1.166,1.167,1.171,1.171,1.175,1.176,1.176,1.179,1.181,1.181,1.181,1.182,1.182,1.182,1.183,1.186,1.186,1.186,1.186,1.185,1.183,1.182,1.182,1.182,1.182,1.182,1.181,1.179,1.179,1.176,1.176,1.176,1.175,1.175,1.175,1.174,1.174,1.172,1.172,1.172,1.172,1.172,1.172,1.172,1.172,1.172,1.174,1.174,1.174,1.174,1.174,1.175,1.174,1.174,1.174,1.174,1.174,1.174,1.174,1.175,1.176,1.178,1.178,1.179,1.183,1.183,1.186,1.19,1.19,1.194,1.197,1.198,1.198,1.198,1.198,1.197,1.196,1.196,1.194,1.194,1.194,1.194,1.194,1.196,1.2,1.2,1.207,1.213,1.22,1.22,1.229,1.233,1.233,1.239,1.243,1.245,1.245,1.243,1.243,1.243,1.245,1.245,1.243,1.242,1.242,1.242,1.242,1.242,1.243,1.243,1.246,1.248,1.248,1.248,1.249,1.249,1.249,1.251,1.253,1.253,2.977,2.977,2.986,2.986,2.986,2.986,2.986,2.986,2.986,2.986,2.977,2.977,2.977,2.968,2.96,2.96,2.96,2.951,2.951,2.951,2.943,2.934,2.934,2.926,2.91,2.91,2.893,2.885,2.885,2.869,2.853,2.853,2.845,2.837,2.837,2.822,2.814,2.806,2.806,2.799,2.783,2.783,2.768,2.754,2.754,2.724,2.703,2.703,2.682,2.661,2.661,2.64,2.634,2.634,2.613,2.6,2.6,2.594,2.587,2.587,2.581,2.574,2.561,2.561,2.555,2.549,2.549,2.536,2.53,2.53,2.524,2.517,2.517,2.511,2.499,2.499,2.493,2.487,2.475,2.475,2.463,2.457,2.457,2.445,2.44,2.44,2.434,2.428,2.428,2.422,2.417,2.417,2.411,2.405,2.405,2.4,2.389,2.383,2.383,2.372,2.361,2.361,2.35,2.345,2.345,2.334,2.324,2.324,2.318,2.318,2.318,2.313,2.308,2.303,2.303,2.298,2.293,2.293,2.287,2.282,2.282,2.277,2.272,2.272,2.267,2.262,2.262,2.252,2.247,2.247,2.238,2.233,2.218,2.218,2.214,2.204,2.204,2.199,2.195,2.195,2.185,2.181,2.181,2.176,2.176,2.176,2.171,2.162,2.162,2.153,2.14,2.131,2.131,2.126,2.113,2.113,2.109,2.096,2.096,2.092,2.088,2.088,2.088,2.088,2.088,2.083,2.079,2.075,2.075,2.067,2.062,2.062,2.05,2.042,2.042,2.034,2.022,2.022,2.014,2.01,2.01,2.006,2.002,2.002,1.998,1.994,1.994,1.99,1.99,1.987,1.987,1.983,1.979,1.979,1.971,1.968,1.968,1.964,1.96,1.96,1.96
0.658,0.658,0.658,0.658,0.659,0.659,0.66,0.661,0.661,0.662,0.663,0.663,0.663,0.664,0.665,0.665,0.666,0.667,0.668,0.668,0.669,0.67,0.67,0.672,0.673,0.673,0.673,0.675,0.676,0.676,0.676,0.677,0.677,0.677,0.678,0.678,0.678,0.679,0.679,0.679,0.68,0.681,0.681,0.681,0.682,0.682,0.682,0.682,0.683,0.683,0.684,0.684,0.684,0.683,0.683,0.683,0.683,0.682,0.682,0.682,0.682,0.682,0.681,0.681,0.681,0.681,0.681,0.682,0.682,0.682,0.682,0.683,0.683,0.683,0.684,0.684,0.684,0.685,0.685,0.685,0.684,0.684,0.684,0.683,0.683,0.682,0.682,0.682,0.681,0.68,0.68,0.679,0.677,0.677,0.677,0.676,0.675,0.675,0.675,0.675,0.675,0.675,0.675,0.675,0.675,0.675,0.675,0.675,0.675,0.675,0.675,0.675,0.674,0.674,0.673,0.673,0.673,0.672,0.671,0.671,0.67,0.67,0.67,0.67,0.67,0.67,0.67,0.67,0.671,0.671,0.671,0.672,0.672,0.672,0.672,0.672,0.673,0.673,0.673,0.673,0.673,0.672,0.672,0.672,0.671,0.671,0.67,0.67,0.669,0.669,0.669,0.669,0.669,0.669,0.669,0.669,0.669,0.67,0.67,0.67,0.67,0.67,0.67,0.67,0.67,0.67,0.669,0.669,0.67,0.67,0.67,0.67,0.67,0.67,0.67,0.67,0.669,0.669,0.669,0.668,0.668,0.668,0.667,0.666,0.666,0.666,0.666,0.666,0.666,0.666,0.666,0.666,0.666,0.666,0.666,0.666,0.666,0.667,0.667,0.668,0.668,0.668,0.668,0.668,0.668,0.668,0.669,0.669,0.669,0.669,0.669,0.669,0.668,0.668,0.668,0.667,0.667,0.667,0.666,0.666,0.666,0.666,0.665,0.665,0.665,0.665,0.665,0.665,0.665,0.665,0.665,0.664,0.664,0.664,0.664,0.664,0.664,0.664,0.664,0.664,0.664,0.663,0.663,0.663,0.663,0.663,0.663,0.663,0.662,0.662,0.662,0.662,0.661,0.661,0.661,0.661,0.661,0.661,0.661,0.661,0.661,0.662,0.662,0.662,0.662,0.662,0.662,0.662,0.662,0.662,0.662,0.662,0.662,0.661,0.66,0.66,0.66,0.66,0.66,0.66,0.66,0.659,0.659,0.658,0.658,0,0,0,0,0,0,0.789,0.788,0.788,0.788,0.788,0.788,0.788,0.788,0.789,0.789,0.789,0.79,0.791,0.791,0.792,0.794,0.794,0.796,0.797,0.799,0.799,0.801,0.802,0.802,1.126,1.124,1.122,1.122,1.12,1.118,1.118,1.118,1.121,1.121,1.121,1.122,1.129,1.129,1.129,1.135,1.142,1.142,1.149,1.154,1.155,1.155,1.158,1.161,1.161,1.166,1.167,1.171,1.171,1.175,1.176,1.176,1.179,1.181,1.181,1.181,1.182,1.182,1.182,1.183,1.186,1.186,1.187,1.187,1.186,1.185,1.185,1.185,1.183,1.183,1.185,1.183,1.182,1.182,1.179,1.178,1.178,1.175,1.175,1.175,1.174,1.174,1.172,1.172,1.172,1.172,1.172,1.172,1.172,1.172,1.172,1.174,1.175,1.175,1.175,1.176,1.176,1.176,1.175,1.175,1.175,1.175,1.176,1.176,1.176,1.178,1.179,1.179,1.182,1.185,1.185,1.189,1.194,1.198,1.198,1.203,1.205,1.205,1.207,1.208,1.207,1.207,1.207,1.207,1.207,1.207,1.207,1.207,1.207,1.211,1.211,1.215,1.22,1.227,1.227,1.234,1.237,1.237,1.24,1.245,1.246,1.246,1.246,1.246,1.246,1.246,1.246,1.246,1.245,1.245,1.245,1.243,1.243,1.246,1.246,1.246,1.248,1.248,1.248,1.249,1.249,1.249,1.251,1.253,1.253,2.977,2.977,2.986,2.986,2.986,2.986,2.986,2.986,2.986,2.986,2.977,2.977,2.977,2.968,2.96,2.96,2.96,2.951,2.951,2.951,2.943,2.934,2.934,2.926,2.918,2.918,2.901,2.893,2.893,2.877,2.861,2.861,2.853,2.837,2.837,2.829,2.822,2.814,2.814,2.799,2.791,2.791,2.776,2.754,2.754,2.732,2.703,2.703,2.682,2.661,2.661,2.647,2.634,2.634,2.613,2.6,2.6,2.594,2.587,2.587,2.581,2.574,2.568,2.568,2.555,2.549,2.549,2.536,2.53,2.53,2.524,2.517,2.517,2.511,2.499,2.499,2.493,2.487,2.475,2.475,2.463,2.457,2.457,2.445,2.44,2.44,2.434,2.428,2.428,2.422,2.417,2.417,2.411,2.405,2.405,2.4,2.389,2.383,2.383,2.372,2.361,2.361,2.35,2.345,2.345,2.334,2.324,2.324,2.318,2.318,2.318,2.313,2.308,2.303,2.303,2.298,2.293,2.293,2.287,2.282,2.282,2.277,2.272,2.272,2.267,2.262,2.262,2.252,2.247,2.247,2.238,2.233,2.218,2.218,2.214,2.204,2.204,2.199,2.195,2.195,2.185,2.181,2.181,2.176,2.176,2.176,2.171,2.162,2.162,2.153,2.14,2.131,2.131,2.126,2.113,2.113,2.109,2.096,2.096,2.092,2.088,2.088,2.088,2.088,2.088,2.083,2.079,2.075,2.075,2.067,2.062,2.062,2.054,2.042,2.042,2.034,2.026,2.026,2.018,2.01,2.01,2.006,2.002,2.002,1.998,1.994,1.994,1.99,1.99,1.99,1.99,1.987,1.983,1.983,1.975,1.971,1.971,1.968,1.968,1.968,1.964
0.658,0.658,0.658,0.658,0.659,0.659,0.66,0.661,0.661,0.662,0.663,0.663,0.663,0.664,0.665,0.665,0.666,0.667,0.668,0.668,0.669,0.67,0.67,0.672,0.673,0.673,0.673,0.675,0.676,0.676,0.676,0.677,0.677,0.677,0.678,0.678,0.678,0.679,0.679,0.679,0.68,0.681,0.681,0.681,0.682,0.682,0.682,0.682,0.683,0.683,0.684,0.684,0.684,0.683,0.683,0.683,0.683,0.682,0.682,0.682,0.682,0.682,0.681,0.681,0.681,0.681,0.681,0.682,0.682,0.682,0.682,0.683,0.683,0.683,0.684,0.684,0.684,0.685,0.685,0.685,0.684,0.684,0.684,0.683,0.683,0.682,0.682,0.682,0.681,0.68,0.68,0.679,0.677,0.677,0.677,0.676,0.675,0.675,0.675,0.675,0.675,0.675,0.675,0.675,0.675,0.675,0.675,0.675,0.675,0.675,0.675,0.675,0.674,0.674,0.673,0.673,0.673,0.672,0.671,0.671,0.67,0.67,0.67,0.67,0.67,0.67,0.67,0.67,0.67,0.671,0.671,0.671,0.671,0.671,0.672,0.672,0.672,0.672,0.672,0.673,0.673,0.672,0.672,0.672,0.671,0.671,0.67,0.67,0.669,0.669,0.669,0.669,0.669,0.669,0.669,0.669,0.669,0.669,0.669,0.669,0.669,0.669,0.669,0.669,0.669,0.669,0.669,0.669,0.669,0.669,0.669,0.669,0.669,0.669,0.669,0.669,0.669,0.669,0.669,0.668,0.667,0.667,0.667,0.666,0.666,0.666,0.665,0.665,0.665,0.665,0.665,0.665,0.665,0.666,0.666,0.666,0.666,0.666,0.666,0.667,0.668,0.668,0.668,0.668,0.668,0.668,0.668,0.669,0.669,0.668,0.668,0.668,0.668,0.667,0.667,0.667,0.667,0.667,0.666,0.666,0.666,0.666,0.665,0.665,0.665,0.664,0.664,0.664,0.664,0.663,0.663,0.663,0.663,0.663,0.663,0.663,0.663,0.663,0.662,0.662,0.662,0.662,0.662,0.662,0.661,0.661,0.661,0.661,0.661,0.661,0.66,0.66,0.66,0.66,0.66,0.66,0.66,0.66,0.66,0.661,0.661,0.661,0.661,0.661,0.662,0.662,0.662,0.662,0.662,0.662,0.662,0.661,0.661,0.661,0.66,0.66,0.66,0.659,0.659,0.66,0.66,0.659,0.659,0.658,0.658,0,0,0,0,0,0,0.789,0.788,0.788,0.788,0.788,0.788,0.788,0.788,0.789,0.789,0.789,0.79,0.791,0.791,0.792,0.794,0.794,0.796,0.797,0.799,0.799,0.801,0.802,0.802,0.806,0.807,1.122,1.122,1.12,1.118,1.118,1.118,1.121,1.121,1.121,1.122,1.126,1.126,1.126,1.127,1.131,1.131,1.149,1.154,1.155,1.155,1.158,1.161,1.161,1.151,1.151,1.151,1.157,1.161,1.176,1.176,1.179,1.181,1.181,1.181,1.182,1.182,1.182,1.183,1.185,1.185,1.187,1.187,1.186,1.185,1.185,1.185,1.183,1.183,1.185,1.183,1.182,1.182,1.179,1.178,1.178,1.175,1.175,1.175,1.174,1.174,1.172,1.172,1.172,1.172,1.172,1.172,1.172,1.172,1.172,1.174,1.175,1.175,1.175,1.176,1.176,1.176,1.175,1.175,1.175,1.175,1.176,1.176,1.176,1.178,1.179,1.179,1.182,1.185,1.185,1.189,1.194,1.198,1.198,1.203,1.205,1.205,1.207,1.208,1.207,1.207,1.207,1.207,1.207,1.207,1.207,1.207,1.207,1.211,1.211,1.215,1.22,1.227,1.227,1.234,1.237,1.237,1.24,1.245,1.246,1.246,1.246,1.246,1.246,1.246,1.246,1.246,1.245,1.245,1.245,1.243,1.243,1.246,1.246,1.246,1.248,1.248,1.246,1.246,1.246,1.246,1.248,1.251,1.251,2.977,2.977,2.986,2.977,2.977,2.977,2.977,2.977,2.977,2.977,2.977,2.968,2.968,2.96,2.96,2.96,2.951,2.951,2.951,2.951,2.943,2.934,2.934,2.926,2.918,2.918,2.901,2.893,2.893,2.877,2.861,2.861,2.853,2.837,2.837,2.829,2.822,2.814,2.814,2.799,2.791,2.791,2.776,2.754,2.754,2.732,2.703,2.703,2.682,2.661,2.661,2.647,2.634,2.634,2.613,2.6,2.6,2.594,2.587,2.587,2.581,2.574,2.568,2.568,2.555,2.549,2.549,2.536,2.53,2.53,2.524,2.517,2.517,2.505,2.493,2.493,2.487,2.475,2.469,2.469,2.457,2.451,2.451,2.445,2.434,2.434,2.428,2.428,2.428,2.422,2.417,2.417,2.411,2.405,2.405,2.4,2.389,2.383,2.383,2.372,2.361,2.361,2.35,2.345,2.345,2.334,2.324,2.324,2.318,2.318,2.318,2.313,2.308,2.303,2.303,2.298,2.293,2.293,2.287,2.282,2.282,2.277,2.272,2.272,2.262,2.257,2.257,2.252,2.247,2.247,2.238,2.228,2.218,2.218,2.214,2.204,2.204,2.199,2.19,2.19,2.185,2.181,2.181,2.176,2.171,2.171,2.167,2.162,2.162,2.149,2.14,2.131,2.131,2.122,2.113,2.113,2.109,2.096,2.096,2.092,2.088,2.088,2.088,2.088,2.088,2.083,2.079,2.075,2.075,2.067,2.062,2.062,2.054,2.042,2.042,2.034,2.026,2.026,2.018,2.01,2.01,2.006,2.002,2.002,1.998,1.994,1.994,1.99,1.99,1.99,1.99,1.987,1.983,1.983,1.975,1.971,1.971,1.968,1.968,1.968,1.964
0.662,0.662,0.662,0.663,0.663,0.663,0.663,0.664,0.664,0.664,0.666,0.666,0.666,0.666,0.667,0.667,0.668,0.668,0.67,0.67,0.671,0.672,0.672,0.673,0.673,0.673,0.674,0.675,0.676,0.676,0.677,0.677,0.677,0.678,0.679,0.679,0.679,0.68,0.681,0.681,0.681,0.682,0.682,0.682,0.683,0.683,0.683,0.684,0.685,0.685,0.685,0.685,0.685,0.684,0.684,0.684,0.684,0.683,0.683,0.682,0.682,0.682,0.682,0.681,0.681,0.681,0.682,0.682,0.683,0.683,0.683,0.683,0.683,0.684,0.685,0.685,0.685,0.686,0.686,0.686,0.686,0.686,0.685,0.684,0.684,0.683,0.682,0.682,0.682,0.681,0.681,0.68,0.679,0.678,0.677,0.677,0.677,0.677,0.676,0.676,0.676,0.676,0.676,0.676,0.676,0.676,0.676,0.676,0.677,0.676,0.676,0.676,0.675,0.675,0.674,0.674,0.674,0.673,0.673,0.673,0.671,0.671,0.671,0.671,0.671,0.67,0.67,0.67,0.67,0.67,0.67,0.671,0.671,0.671,0.671,0.672,0.672,0.672,0.672,0.672,0.672,0.672,0.672,0.671,0.67,0.67,0.67,0.669,0.669,0.669,0.669,0.669,0.669,0.669,0.669,0.669,0.669,0.669,0.669,0.669,0.669,0.668,0.668,0.668,0.668,0.668,0.668,0.668,0.669,0.668,0.668,0.668,0.668,0.668,0.668,0.669,0.669,0.668,0.668,0.668,0.667,0.667,0.666,0.666,0.666,0.665,0.665,0.665,0.664,0.664,0.664,0.664,0.664,0.665,0.665,0.665,0.666,0.666,0.666,0.666,0.667,0.667,0.667,0.668,0.668,0.668,0.668,0.668,0.668,0.668,0.668,0.668,0.667,0.667,0.667,0.667,0.666,0.666,0.666,0.665,0.665,0.665,0.665,0.665,0.664,0.664,0.663,0.663,0.663,0.663,0.663,0.662,0.662,0.662,0.662,0.661,0.661,0.661,0.66,0.66,0.66,0.66,0.66,0.66,0.66,0.659,0.659,0.659,0.66,0.66,0.659,0.659,0.659,0.66,0.66,0.66,0.66,0.66,0.66,0.66,0.66,0.661,0.661,0.661,0.661,0.661,0.661,0.661,0.661,0.661,0.661,0.661,0.661,0.66,0.66,0.66,0.66,0.659,0.659,0.659,0.659,0.659,0.659,0.659,0.659,0.66,0.66,0.66,0,0,0,0.789,0.789,0.789,0.789,0.789,0.791,0.791,0.791,0.792,0.792,0.792,0.794,0.794,0.794,0.797,0.798,0.798,0.8,0.801,0.802,0.802,0.803,0.804,0.804,0.806,0.807,1.141,0,1.127,1.126,1.126,1.126,1.129,1.129,1.129,0,1.126,1.121,1.121,1.127,1.131,1.131,0,0,0,0,0,0,0,1.151,1.151,1.151,1.157,1.161,0,0,0,0,0,0,0,0,0,1.185,1.185,1.185,1.187,1.189,1.189,1.186,1.186,1.186,1.186,1.186,1.186,1.186,1.183,1.183,1.181,1.179,1.179,1.178,1.176,1.176,1.175,1.175,1.174,1.174,1.174,1.174,1.174,1.174,1.174,1.175,1.175,1.175,1.176,1.178,1.178,1.178,1.178,1.178,1.178,1.178,1.176,1.176,1.178,1.178,1.179,1.179,1.181,1.181,1.183,1.187,1.187,1.19,1.197,1.203,1.203,1.208,1.211,1.211,1.213,1.215,1.215,1.214,1.214,1.215,1.215,1.215,1.215,1.215,1.215,1.218,1.218,1.221,1.226,1.23,1.23,1.236,1.239,1.239,1.242,1.245,1.246,1.246,1.246,1.248,1.248,1.249,1.251,1.249,1.248,1.245,1.245,1.245,1.245,1.246,1.246,1.246,1.248,1.246,1.246,1.246,1.246,1.246,1.248,1.251,1.251,2.977,2.977,2.977,2.977,2.977,2.977,2.977,2.977,2.977,2.977,2.968,2.96,2.96,2.951,2.951,2.951,2.951,2.943,2.943,2.943,2.943,2.934,2.934,2.926,2.918,2.918,2.91,2.901,2.901,2.885,2.877,2.877,2.853,2.845,2.845,2.837,2.829,2.814,2.814,2.806,2.791,2.791,2.768,2.754,2.754,2.724,2.703,2.703,2.682,2.661,2.661,2.64,2.634,2.634,2.62,2.607,2.607,2.6,2.587,2.587,2.581,2.574,2.568,2.568,2.555,2.549,2.549,2.536,2.53,2.53,2.517,2.511,2.511,2.499,2.493,2.493,2.481,2.475,2.469,2.463,2.451,2.445,2.445,2.44,2.434,2.434,2.428,2.428,2.428,2.422,2.417,2.417,2.417,2.405,2.405,2.4,2.389,2.383,2.383,2.372,2.361,2.361,2.35,2.34,2.34,2.334,2.329,2.329,2.324,2.318,2.318,2.313,2.308,2.303,2.303,2.298,2.293,2.293,2.287,2.282,2.282,2.277,2.267,2.267,2.262,2.252,2.252,2.247,2.243,2.243,2.233,2.223,2.218,2.218,2.209,2.204,2.204,2.199,2.19,2.19,2.185,2.176,2.176,2.171,2.167,2.167,2.162,2.158,2.158,2.149,2.14,2.131,2.131,2.118,2.113,2.113,2.105,2.1,2.1,2.096,2.092,2.092,2.092,2.088,2.088,2.083,2.079,2.075,2.075,2.071,2.062,2.062,2.054,2.042,2.042,2.034,2.026,2.026,2.018,2.01,2.01,2.006,2.002,2.002,1.994,1.994,1.994,1.994,1.99,1.99,1.99,1.987,1.983,1.983,1.979,1.975,1.975,1.971,1.968,1.968,1.964
0,0,0.666,0.666,0.666,0.666,0.667,0.667,0.668,0.668,0.668,0.668,0.668,0.669,0.669,0.669,0.67,0.671,0.671,0.671,0.672,0.673,0.673,0.673,0.674,0.675,0.675,0.676,0.677,0.677,0.677,0.678,0.678,0.679,0.68,0.68,0.68,0.681,0.682,0.682,0.682,0.683,0.684,0.684,0.685,0.685,0.685,0.686,0.686,0.686,0.687,0.686,0.686,0.686,0.685,0.685,0.685,0.684,0.684,0.683,0.683,0.683,0.682,0.682,0.682,0.682,0.682,0.683,0.684,0.684,0.684,0.684,0.684,0.685,0.686,0.686,0.686,0.687,0.687,0.686,0.686,0.686,0.686,0.685,0.685,0.684,0.683,0.683,0.683,0.682,0.682,0.681,0.68,0.678,0.678,0.677,0.677,0.677,0.677,0.677,0.677,0.676,0.676,0.676,0.676,0.677,0.677,0.677,0.677,0.677,0.677,0.676,0.676,0.676,0.675,0.675,0.675,0.674,0.673,0.673,0.673,0.672,0.671,0.671,0.671,0.671,0.671,0.67,0.67,0.67,0.67,0.671,0.671,0.671,0.671,0.672,0.672,0.672,0.672,0.672,0.672,0.672,0.672,0.671,0.67,0.67,0.67,0.669,0.669,0.669,0.669,0.669,0.669,0.669,0.669,0.669,0.669,0.669,0.669,0.669,0.669,0.668,0.668,0.668,0.668,0.668,0.668,0.668,0.669,0.668,0.668,0.668,0.668,0.668,0.668,0.669,0.669,0.668,0.668,0.668,0.667,0.667,0.666,0.666,0.666,0.665,0.665,0.665,0.664,0.664,0.664,0.664,0.664,0.665,0.665,0.665,0.666,0.666,0.666,0.666,0.667,0.667,0.667,0.668,0.668,0.668,0.668,0.668,0.668,0.668,0.668,0.668,0.667,0.667,0.667,0.667,0.666,0.666,0.666,0.665,0.665,0.665,0.665,0.665,0.664,0.664,0.663,0.663,0.663,0.663,0.663,0.662,0.662,0.662,0.662,0.661,0.661,0.661,0.66,0.66,0.66,0.66,0.66,0.66,0.66,0.659,0.659,0.659,0.66,0.66,0.659,0.659,0.659,0.66,0.66,0.66,0.66,0.66,0.66,0.66,0.66,0.661,0.661,0.661,0.661,0.661,0.661,0.661,0.661,0.661,0.661,0.661,0.661,0.66,0.66,0.66,0.66,0.66,0.659,0.659,0.659,0.66,0.66,0.659,0.659,0.66,0.66,0.66,0,0,0,0,0,0,0.791,0.791,0.792,0.792,0.794,0.795,0.796,0.796,0.797,0.798,0.798,0.8,0.801,0.803,0.803,0.804,0.805,0.805,0.806,0.807,0.807,0.807,0.809,1.141,0,1.137,1.136,1.136,1.136,1.137,1.137,0,0,0,1.121,1.121,0,0,0,0,0,0,0,0,0,0,0,0,0,0,0,0,0,0,0,0,0,0,0,0,0,0,1.187,1.187,1.189,1.189,1.189,1.189,1.189,1.187,1.187,1.187,1.187,1.185,1.185,1.182,1.179,1.179,1.178,1.178,1.178,1.176,1.176,1.176,1.176,1.175,1.175,1.175,1.175,1.175,1.176,1.176,1.178,1.178,1.179,1.178,1.178,1.178,1.178,1.178,1.178,1.178,1.178,1.179,1.179,1.179,1.181,1.182,1.182,1.185,1.187,1.187,1.193,1.198,1.204,1.204,1.21,1.213,1.213,1.217,1.218,1.22,1.22,1.221,1.223,1.223,1.221,1.221,1.221,1.221,1.223,1.226,1.226,1.23,1.234,1.234,1.237,1.24,1.24,1.242,1.245,1.248,1.248,1.248,1.249,1.249,1.253,1.254,1.253,1.249,1.248,1.248,1.246,1.246,1.246,1.246,1.248,1.248,1.246,1.246,1.246,1.246,1.246,1.248,1.251,1.251,2.977,2.977,2.977,2.977,2.977,2.977,2.977,2.977,2.977,2.977,2.968,2.96,2.96,2.951,2.951,2.951,2.951,2.943,2.943,2.943,2.943,2.934,2.934,2.934,2.926,2.926,2.918,2.901,2.901,2.893,2.885,2.885,2.869,2.853,2.853,2.845,2.837,2.822,2.822,2.806,2.791,2.791,2.768,2.754,2.754,2.724,2.703,2.703,2.682,2.661,2.661,2.64,2.634,2.634,2.62,2.607,2.607,2.6,2.587,2.587,2.581,2.574,2.568,2.568,2.555,2.549,2.549,2.536,2.53,2.53,2.517,2.511,2.511,2.499,2.493,2.493,2.481,2.475,2.475,2.463,2.451,2.445,2.445,2.44,2.434,2.434,2.428,2.428,2.428,2.422,2.417,2.417,2.417,2.405,2.405,2.4,2.389,2.383,2.383,2.372,2.361,2.361,2.35,2.34,2.34,2.334,2.329,2.329,2.324,2.318,2.318,2.313,2.308,2.303,2.303,2.298,2.293,2.293,2.287,2.282,2.282,2.277,2.267,2.267,2.262,2.252,2.252,2.247,2.243,2.243,2.233,2.223,2.218,2.218,2.209,2.204,2.204,2.199,2.19,2.19,2.185,2.176,2.176,2.171,2.167,2.167,2.162,2.158,2.158,2.149,2.14,2.131,2.131,2.118,2.113,2.113,2.105,2.1,2.1,2.096,2.092,2.092,2.092,2.088,2.088,2.088,2.083,2.075,2.075,2.071,2.067,2.067,2.058,2.046,2.046,2.034,2.026,2.026,2.018,2.01,2.01,2.006,2.002,2.002,1.994,1.994,1.994,1.994,1.99,1.99,1.99,1.987,1.987,1.987,1.979,1.975,1.975,1.971,1.968,1.968,1.968
0.669,0.669,0.666,0.666,0.666,0.666,0.667,0.667,0.668,0.668,0.668,0.668,0.668,0.669,0.669,0.669,0.67,0.671,0.671,0.671,0.672,0.673,0.673,0.673,0.674,0.675,0.675,0.676,0.677,0.677,0.677,0.678,0.678,0.679,0.68,0.68,0.68,0.681,0.682,0.682,0.682,0.683,0.684,0.684,0.685,0.685,0.685,0.686,0.686,0.686,0.687,0.686,0.686,0.686,0.685,0.685,0.685,0.684,0.684,0.683,0.683,0.683,0.682,0.682,0.682,0.682,0.682,0.683,0.684,0.684,0.684,0.684,0.684,0.685,0.686,0.686,0.686,0.687,0.687,0.686,0.686,0.686,0.686,0.685,0.685,0.684,0.683,0.683,0.683,0.682,0.682,0.681,0.68,0.678,0.678,0.677,0.677,0.677,0.677,0.677,0.677,0.676,0.676,0.676,0.676,0.677,0.677,0.677,0.677,0.677,0.677,0.676,0.676,0.676,0.675,0.675,0.675,0.674,0.673,0.673,0.673,0.672,0.671,0.671,0.671,0.671,0.671,0.67,0.67,0.67,0.67,0.671,0.671,0.671,0.671,0.671,0.671,0.671,0.671,0.672,0.672,0.671,0.671,0.671,0.67,0.67,0.669,0.669,0.669,0.669,0.669,0.669,0.669,0.669,0.669,0.669,0.669,0.669,0.669,0.669,0.668,0.668,0.668,0.667,0.667,0.667,0.667,0.668,0.668,0.668,0.668,0.668,0.668,0.668,0.668,0.668,0.668,0.668,0.668,0.667,0.667,0.667,0.666,0.666,0.666,0.665,0.664,0.664,0.664,0.664,0.664,0.664,0.664,0.664,0.664,0.664,0.665,0.665,0.665,0.666,0.666,0.667,0.667,0.667,0.668,0.668,0.668,0.668,0.668,0.667,0.667,0.667,0.667,0.667,0.667,0.666,0.666,0.666,0.666,0.665,0.665,0.665,0.664,0.664,0.663,0.663,0.663,0.663,0.662,0.662,0.662,0.661,0.661,0.661,0.66,0.66,0.66,0.66,0.659,0.659,0.659,0.658,0.658,0.658,0.658,0.658,0.658,0.658,0.658,0.658,0.658,0.658,0.658,0.658,0.658,0.659,0.659,0.659,0.659,0.66,0.66,0.66,0.661,0.661,0.661,0.661,0.661,0.661,0.661,0.661,0.661,0.66,0.66,0.66,0.66,0.66,0.659,0.659,0.659,0.659,0.659,0.659,0.66,0.659,0.659,0.66,0.66,0.66,0,0,0,0,0,0,0.791,0.791,0.792,0.792,0.794,0.795,0.796,0.796,0.797,0.798,0.798,0.8,0.801,0.803,0.803,0.804,0.805,0.805,0.806,0.807,0.807,0.807,0.809,1.141,0,1.137,1.136,1.136,1.136,1.137,1.137,1.146,1.146,0,1.116,1.116,0,0,1.1,1.1,1.1,1.098,1.097,1.097,1.097,0,0,0,0,0,0,0,0,0,0,0,0,0,0,0,0,0,1.187,1.187,1.189,1.189,1.189,1.187,1.187,1.187,1.187,1.187,1.186,1.183,1.183,1.181,1.179,1.179,1.176,1.176,1.176,1.176,1.176,1.176,1.176,1.175,1.175,1.175,1.175,1.175,1.176,1.176,1.178,1.178,1.179,1.178,1.178,1.178,1.178,1.178,1.178,1.178,1.178,1.179,1.179,1.179,1.181,1.182,1.182,1.185,1.187,1.187,1.193,1.198,1.204,1.204,1.21,1.213,1.213,1.217,1.218,1.22,1.22,1.221,1.223,1.223,1.221,1.221,1.221,1.221,1.223,1.226,1.226,1.23,1.234,1.234,1.237,1.24,1.24,1.242,1.245,1.248,1.248,1.248,1.249,1.249,1.253,1.254,1.253,1.249,1.248,1.248,1.245,1.245,1.245,1.245,1.246,1.246,1.246,1.245,1.245,1.245,1.245,1.248,1.251,1.251,2.977,2.977,2.977,2.977,2.977,2.977,2.977,2.968,2.968,2.968,2.96,2.951,2.951,2.951,2.943,2.943,2.943,2.943,2.943,2.943,2.943,2.934,2.934,2.934,2.926,2.926,2.918,2.901,2.901,2.893,2.885,2.885,2.869,2.853,2.853,2.845,2.837,2.822,2.822,2.806,2.783,2.783,2.768,2.746,2.746,2.724,2.696,2.696,2.675,2.654,2.654,2.64,2.627,2.627,2.613,2.607,2.607,2.594,2.587,2.587,2.581,2.574,2.561,2.561,2.555,2.542,2.542,2.536,2.524,2.524,2.517,2.505,2.505,2.499,2.487,2.487,2.481,2.475,2.475,2.463,2.451,2.445,2.445,2.434,2.428,2.428,2.422,2.422,2.422,2.422,2.417,2.417,2.411,2.405,2.405,2.4,2.389,2.383,2.383,2.372,2.361,2.361,2.35,2.34,2.34,2.334,2.329,2.329,2.324,2.318,2.318,2.313,2.308,2.303,2.303,2.298,2.293,2.293,2.287,2.277,2.277,2.272,2.262,2.262,2.257,2.252,2.252,2.243,2.238,2.238,2.228,2.223,2.214,2.214,2.209,2.204,2.204,2.199,2.19,2.19,2.185,2.176,2.176,2.171,2.167,2.167,2.162,2.153,2.153,2.144,2.135,2.131,2.131,2.118,2.113,2.113,2.105,2.1,2.1,2.096,2.092,2.092,2.092,2.088,2.088,2.088,2.083,2.075,2.075,2.071,2.067,2.067,2.058,2.046,2.046,2.034,2.026,2.026,2.018,2.01,2.01,2.006,2.002,2.002,1.994,1.994,1.994,1.994,1.99,1.99,1.99,1.987,1.983,1.983,1.979,1.975,1.975,1.971,1.968,1.968,1.968
0.669,0.669,0.669,0.669,0.669,0.671,0.669,0.669,0.67,0.67,0.67,0.671,0.671,0.671,0.671,0.672,0.672,0.672,0.673,0.673,0.673,0.674,0.674,0.674,0.675,0.676,0.676,0.677,0.677,0.677,0.678,0.679,0.679,0.68,0.681,0.682,0.682,0.682,0.683,0.683,0.684,0.684,0.685,0.685,0.686,0.687,0.687,0.687,0.687,0.687,0.688,0.688,0.688,0.687,0.687,0.687,0.686,0.686,0.686,0.684,0.684,0.684,0.683,0.682,0.682,0.682,0.683,0.684,0.684,0.684,0.685,0.686,0.686,0.687,0.687,0.687,0.687,0.687,0.687,0.687,0.687,0.687,0.687,0.686,0.686,0.685,0.684,0.684,0.684,0.683,0.682,0.682,0.681,0.679,0.679,0.678,0.678,0.678,0.677,0.677,0.677,0.677,0.677,0.677,0.677,0.677,0.677,0.677,0.677,0.677,0.677,0.677,0.676,0.676,0.676,0.676,0.676,0.675,0.674,0.674,0.673,0.673,0.672,0.672,0.672,0.671,0.671,0.671,0.67,0.67,0.67,0.67,0.67,0.67,0.671,0.671,0.671,0.671,0.671,0.671,0.671,0.671,0.671,0.671,0.67,0.67,0.669,0.669,0.669,0.669,0.669,0.669,0.669,0.668,0.668,0.669,0.669,0.668,0.668,0.668,0.668,0.668,0.668,0.667,0.667,0.667,0.667,0.667,0.667,0.667,0.667,0.668,0.668,0.668,0.668,0.668,0.668,0.667,0.667,0.667,0.667,0.667,0.666,0.665,0.665,0.664,0.664,0.664,0.663,0.663,0.663,0.663,0.663,0.663,0.663,0.663,0.664,0.665,0.665,0.665,0.666,0.666,0.666,0.667,0.667,0.667,0.667,0.667,0.667,0.667,0.667,0.667,0.666,0.666,0.666,0.666,0.665,0.665,0.665,0.664,0.664,0.663,0.663,0.663,0.663,0.663,0.662,0.662,0.661,0.661,0.661,0.66,0.66,0.66,0.659,0.659,0.659,0.658,0.658,0.658,0.658,0.657,0.657,0.657,0.657,0.656,0.656,0.656,0.657,0.657,0.657,0.657,0.657,0.657,0.658,0.658,0.658,0.658,0.658,0.659,0.659,0.66,0.66,0.66,0.66,0.66,0.66,0.66,0.66,0.66,0.66,0.66,0.66,0.66,0.66,0.66,0.659,0.659,0.659,0.659,0.659,0.659,0.66,0.66,0.66,0.66,0.66,0.661,0.662,0,0,0,0,0,0,0.796,0.796,0.797,0.797,0.799,0.8,0.8,0.801,0.802,0.802,0.803,0.804,0.806,0.806,0.807,0.807,0.807,0.808,0.809,0.809,0.809,0.811,0.813,0.813,0,1.149,1.149,1.151,1.149,1.146,1.146,1.146,0,1.116,1.116,0,1.086,1.082,1.082,1.082,1.08,1.08,1.079,1.079,1.08,1.08,1.087,1.098,0,0,0,0,0,0,0,0,0,0,0,0,0,0,1.191,1.191,1.191,1.19,1.186,1.186,1.183,1.183,1.183,1.183,1.181,1.181,1.178,1.175,1.175,1.174,1.174,1.174,1.174,1.176,1.176,1.178,1.178,1.176,1.176,1.176,1.178,1.178,1.178,1.179,1.179,1.179,1.179,1.179,1.179,1.179,1.179,1.179,1.179,1.179,1.179,1.179,1.181,1.182,1.183,1.183,1.186,1.189,1.189,1.193,1.198,1.204,1.204,1.211,1.214,1.214,1.217,1.221,1.224,1.224,1.227,1.23,1.23,1.229,1.229,1.229,1.229,1.23,1.231,1.231,1.234,1.237,1.237,1.24,1.242,1.242,1.243,1.246,1.248,1.248,1.249,1.254,1.254,0,1.259,1.256,1.251,1.248,1.248,1.245,1.245,1.245,1.245,1.246,1.246,1.245,1.245,1.245,1.243,1.243,1.246,1.249,1.249,2.986,2.977,2.977,2.977,2.977,2.977,2.968,2.968,2.968,2.968,2.96,2.951,2.951,2.943,2.943,2.943,2.934,2.934,2.934,2.934,2.934,2.943,2.943,2.934,2.926,2.926,2.918,2.91,2.91,2.901,2.893,2.893,2.877,2.869,2.869,2.853,2.837,2.822,2.822,2.806,2.783,2.783,2.761,2.739,2.739,2.717,2.696,2.696,2.668,2.647,2.647,2.634,2.62,2.62,2.613,2.6,2.6,2.594,2.587,2.587,2.581,2.568,2.561,2.561,2.549,2.542,2.542,2.536,2.524,2.524,2.517,2.505,2.505,2.499,2.487,2.487,2.475,2.469,2.469,2.457,2.451,2.44,2.44,2.434,2.428,2.428,2.422,2.422,2.422,2.417,2.417,2.417,2.411,2.405,2.405,2.4,2.389,2.383,2.383,2.372,2.361,2.361,2.35,2.34,2.34,2.334,2.329,2.329,2.324,2.318,2.318,2.313,2.308,2.308,2.303,2.293,2.287,2.287,2.282,2.277,2.277,2.272,2.262,2.262,2.252,2.247,2.247,2.243,2.233,2.233,2.228,2.223,2.214,2.214,2.209,2.204,2.204,2.199,2.19,2.19,2.185,2.176,2.176,2.171,2.167,2.167,2.162,2.153,2.153,2.144,2.135,2.126,2.126,2.122,2.113,2.113,2.109,2.1,2.1,2.096,2.096,2.096,2.092,2.092,2.092,2.088,2.083,2.079,2.079,2.075,2.067,2.067,2.058,2.046,2.046,2.038,2.026,2.026,2.018,2.01,2.01,2.006,1.998,1.998,1.994,1.994,1.994,1.994,1.994,1.99,1.99,1.987,1.983,1.983,1.979,1.975,1.975,1.971,1.968,1.968,1.964
0.671,0.671,0.671,0.671,0.671,0.671,0.671,0.671,0.671,0.671,0.672,0.672,0.672,0.672,0.672,0.673,0.673,0.673,0.673,0.673,0.674,0.674,0.674,0.675,0.676,0.676,0.676,0.677,0.678,0.678,0.679,0.68,0.68,0.681,0.682,0.683,0.683,0.683,0.684,0.684,0.685,0.686,0.687,0.687,0.687,0.688,0.688,0.689,0.689,0.689,0.69,0.69,0.69,0.689,0.688,0.688,0.688,0.687,0.687,0.686,0.685,0.685,0.684,0.683,0.683,0.683,0.684,0.685,0.685,0.685,0.686,0.687,0.687,0.687,0.687,0.688,0.688,0.688,0.688,0.688,0.687,0.687,0.687,0.687,0.687,0.686,0.685,0.685,0.684,0.684,0.682,0.682,0.682,0.68,0.68,0.679,0.678,0.678,0.677,0.677,0.677,0.677,0.677,0.677,0.677,0.677,0.677,0.677,0.677,0.677,0.677,0.677,0.677,0.677,0.677,0.676,0.676,0.676,0.675,0.675,0.674,0.673,0.673,0.673,0.672,0.671,0.671,0.671,0.67,0.67,0.67,0.67,0.67,0.67,0.671,0.671,0.671,0.671,0.671,0.671,0.671,0.671,0.671,0.671,0.67,0.67,0.67,0.669,0.669,0.669,0.669,0.669,0.669,0.668,0.668,0.669,0.669,0.668,0.668,0.668,0.668,0.668,0.668,0.667,0.667,0.667,0.667,0.667,0.667,0.667,0.667,0.668,0.668,0.668,0.668,0.668,0.668,0.667,0.667,0.667,0.667,0.667,0.666,0.665,0.665,0.664,0.664,0.664,0.663,0.663,0.663,0.663,0.663,0.663,0.663,0.663,0.664,0.665,0.665,0.665,0.666,0.666,0.666,0.667,0.667,0.667,0.667,0.667,0.667,0.667,0.667,0.667,0.666,0.666,0.666,0.666,0.665,0.665,0.665,0.664,0.664,0.663,0.663,0.663,0.663,0.663,0.662,0.662,0.661,0.661,0.661,0.66,0.66,0.66,0.659,0.659,0.659,0.658,0.658,0.658,0.658,0.657,0.657,0.657,0.657,0.656,0.656,0.656,0.657,0.657,0.657,0.657,0.657,0.657,0.658,0.658,0.658,0.658,0.658,0.659,0.659,0.66,0.66,0.66,0.66,0.66,0.66,0.66,0.66,0.66,0.66,0.66,0.66,0.66,0.66,0.66,0.659,0.659,0.659,0.659,0.659,0.66,0.66,0.66,0.66,0.66,0.66,0.661,0.662,0,0,0,0,0,0,0,0,0,0.802,0.802,0.802,0.802,0.804,0.805,0.806,0.806,0.807,0.809,0.809,0.81,0.81,0.81,0.811,0.811,0.811,0.811,0.812,0.813,0.813,0,0,0,0,0,0,0,0,0,0,0,0,1.086,1.082,1.082,1.082,1.08,1.08,1.079,1.079,1.08,1.08,1.087,1.098,0,0,0,0,0,0,0,0,0,0,0,0,0,0,0,0,0,1.19,1.186,1.186,1.183,1.183,1.183,1.183,1.181,1.181,1.178,1.175,1.175,1.174,1.174,1.174,1.174,1.178,1.179,1.179,1.179,1.179,1.179,1.179,1.181,1.181,1.181,1.182,1.182,1.182,1.182,1.182,1.182,1.182,1.181,1.181,1.181,1.181,1.181,1.181,1.181,1.182,1.183,1.183,1.186,1.189,1.189,1.193,1.198,1.204,1.204,1.211,1.214,1.214,1.217,1.221,1.227,1.227,1.23,1.234,1.234,1.234,1.234,1.234,1.234,1.234,1.236,1.236,1.237,1.24,1.24,1.24,1.243,1.243,1.245,1.248,1.248,1.248,1.254,1.254,1.254,0,1.259,1.259,1.253,1.249,1.249,1.246,1.246,1.246,1.246,1.246,1.246,1.245,1.245,1.245,1.243,1.243,1.246,1.249,1.249,2.986,2.977,2.977,2.977,2.968,2.968,2.968,2.968,2.96,2.96,2.951,2.943,2.943,2.943,2.934,2.934,2.926,2.926,2.934,2.934,2.934,2.943,2.943,2.934,2.934,2.934,2.926,2.918,2.918,2.91,2.901,2.901,2.885,2.869,2.869,2.853,2.845,2.822,2.822,2.806,2.783,2.783,2.761,2.732,2.732,2.71,2.682,2.682,2.661,2.64,2.64,2.627,2.62,2.62,2.607,2.6,2.6,2.594,2.587,2.587,2.574,2.568,2.561,2.561,2.549,2.536,2.536,2.53,2.524,2.524,2.511,2.505,2.505,2.499,2.487,2.487,2.475,2.469,2.469,2.457,2.451,2.44,2.44,2.434,2.428,2.428,2.422,2.422,2.422,2.417,2.417,2.417,2.411,2.405,2.405,2.4,2.389,2.383,2.383,2.372,2.361,2.361,2.35,2.34,2.34,2.334,2.329,2.329,2.324,2.318,2.318,2.313,2.308,2.308,2.298,2.293,2.287,2.287,2.277,2.272,2.272,2.267,2.257,2.257,2.252,2.247,2.247,2.243,2.233,2.233,2.228,2.223,2.214,2.214,2.209,2.204,2.204,2.199,2.19,2.19,2.185,2.181,2.181,2.171,2.167,2.167,2.162,2.153,2.153,2.144,2.135,2.126,2.126,2.122,2.113,2.113,2.109,2.105,2.105,2.1,2.1,2.1,2.096,2.092,2.092,2.088,2.088,2.083,2.083,2.079,2.071,2.071,2.062,2.046,2.046,2.038,2.03,2.03,2.022,2.01,2.01,2.002,1.998,1.998,1.994,1.994,1.994,1.99,1.99,1.99,1.99,1.987,1.983,1.983,1.979,1.975,1.975,1.971,1.968,1.968,1.964
